# .PCD v0.7 - Point Cloud Data file format
VERSION 0.7
FIELDS x y z
SIZE 4 4 4
TYPE F F F
COUNT 1 1 1
WIDTH 1449
HEIGHT 1
VIEWPOINT 0 0 0 1 0 0 0
POINTS 1449
DATA ascii
-0.010699 0.015465 0.0099999998
0.0089079998 -0.050725002 0.0099999998
-0.034729 0.051213998 0.088937998
-0.01432 0.027666001 0
-0.021413 -0.054488 0.092027001
-0.075338997 0.0037430001 0.025118001
-0.063933998 0.015636999 0.077336997
-0.074674003 -0.045363002 0.0094290003
0.049695 -0.017495001 0.118021
-0.037859999 0.038812999 0.109002
0.0066960002 -0.010107 0.19
-0.0099999998 -0.060702998 0.120176
-0.0071180002 0.073583998 0.001428
0.010732 -0.064741999 0.060651001
0.0044510001 -0.072779 0.172254
0.0031020001 -0.060658 0.138953
0.073737003 -0.012798 0.050237998
0.051771998 0.055443 0.0099999998
-0.046757001 0.069597997 0.0074220002
0.084521003 0.0060359999 0.02255
-0.029256999 0.018909 0.0099999998
-0.00296 -0.041981999 0.19
0.003703 0.05009 0.109917
-0.030592 -0.020990999 0.113
-0.0048480001 -0.074625 0.052271999
0.056743 0.0038340001 0.096818998
0.00059800001 -0.044013999 0.126598
-0.070211999 -0.049017001 0.0084509999
0.057188999 -0.022023 0
-0.0059250002 -0.082273997 0.198341
0.0024939999 -0.061701 0.078714997
0.017140999 -0.060631 0.086145997
-0.083962999 0.0037789999 0.025505001
0.070056997 -0.039101001 0.034814999
0.061032999 0.037402 0.060079999
-0.027504999 -0.038224999 0.0099999998
0.0041800002 -0.127012 0.093667001
-0.0053869998 0.076146998 0.152271
0.067033 -0.033686001 0.0099999998
0.061177999 0.057783 0.006912
0.062549002 0.055705 0.0069030002
0.084779002 0.0062199999 0.021685001
0.062661 0.030572999 0.0099999998
0.0095800003 -0.014665 0
0.073124997 0.0039240001 0.033521999
0.002327 0.038392 0.19
0.061671998 0.048074 0.011875
-0.0054649999 0.066885002 0.12682199
-0.005537 -0.014295 0.0099999998
-0.012212 0.054526001 0.098945998
-0.0099999998 -0.050115999 0.19063599
-0.072618999 -0.03968 0.027482999
0.01884 -0.026687 0.113
-0.0099999998 -0.067271002 0.19081201
-0.034876 -0.081496 0.013388
-0.042072002 0.054132 0.049667999
-0.056813002 0.032662999 0.078446999
-0.0066280002 -0.099739 0.050124999
-0.0060669999 -0.01588 0.148094
-0.047036 0.066629 0.0060740001
-0.017167 -0.042594001 0.113
0.071238004 0.028052 0.0099999998
0.045425002 0.047281999 0.064747997
0.0085420003 0.005936 0.131171
-0.031342 0.024784001 0.0099999998
0.0099999998 0.062959999 0.125506
-0.051199 -0.018704999 0.112901
-0.032737002 -0.059470002 0
0.029431 0.03026 0.113
0.047646999 0.056396998 0.054584
-0.037671998 0.046193 0.0099999998
-0.022272 -0.064061999 0.054414999
-0.056311999 -0.029827001 0.084403001
-0.024970001 -0.063252002 0.073893003
-0.0032309999 0.052885 0.117595
-0.050709002 0.024592999 0
-0.0023960001 -0.067221001 0.127746
0.0068000001 -0.054903001 0.19
-0.06825 -0.003207 0.071929999
0.0099999998 0.063421004 0.11889
0.017168 0.047226001 0.0099999998
-0.065742001 0.040894002 0.0036559999
0.078602999 -0.024557 0.029104
0.0079509998 -0.040385999 0.19
0.029654 -0.055210002 0.073288001
-0.0087959999 -0.032947 0.113
0.0086019998 0.061680999 0.088048004
0.071190998 -0.040537 0.029609
0.039377 0.0049669999 0.0099999998
0.053576998 -0.044987999 0.066013999
0.063873999 -0.0013229999 0.071226999
-0.056293 -0.021152999 0.0099999998
-0.0099999998 -0.019758999 0.19628701
-0.0098580001 -0.117408 0.093736
0.047375999 -0.039225999 0.077995002
-0.013658 0.047398999 0.117985
-0.0056329998 0.014254 0.136924
-0.0056870002 0.025451001 0.113
0.0073500001 -0.051405001 0.114725
-0.010449 -0.045031 0.113175
0.049005002 -0.052154001 0.040980998
0.017472001 0.010382 0.113
-0.046243999 0.009331 0.0099999998
0.0020639999 -0.088230997 0.2
-0.044496998 0.067723997 0.0057819998
0.068526 -0.055149 0.011955
0.003207 -0.024971999 0
0.0099999998 0.057592001 0.193904
0.006912 0.070726998 0.13737801
-0.022821 0.073406003 0.0099999998
-0.00214 0.065397002 0.064718001
-0.058453001 0.037746999 0.044984002
-0.017809 0.074417002 0.017875001
-0.075345002 0.0072400002 0.02241
0.029394999 0.054719001 0.075460002
-0.064361997 -0.016872 0.057402998
0.0069949999 0.060407002 0.092724003
0.072660998 -0.006176 0.00079399999
-0.076765999 -0.024093 0.0051759998
0.037025001 -0.041057002 0.0099999998
0.072063997 -0.022249 0.023548
-0.035312999 0.06064 0.043148998
-0.0021800001 0.050368998 0
0.049509 0.0087369997 0.121536
-0.024242001 -0.057146002 0.09161
0.016526001 -0.073568001 0.022136001
-0.082534999 0.031202 0.013691
-0.001898 0.058828 0.13392401
-0.041482002 0.044861998 0.081289999
-0.066669002 0.0024270001 0.059588999
-0.0021540001 -0.085983001 0.179295
0.0042030001 -0.124682 0.089643002
0.049036 0.056231 0.001684
-2.4999999e-05 -0.050545 0.103872
0.005996 0.059716001 0.083686002
-0.044085 0.071964003 0.021793
0.02141 0.064115003 0.073438004
0.0028939999 -0.00045699999 0.155876
0.0077769998 0.072158001 0.19
-0.0034759999 0.087085001 0.18232299
-0.066515997 0.032648999 0.029748
0.059347998 -0.061487 0.022483001
-0.0074959998 -0.002326 0.12961701
-0.072081998 0.012267 0.031144001
0.077637002 -0.029378001 0.029123001
0.001127 -0.086623996 0.19715901
-0.01946 -0.076146998 0.039280001
0.054963998 0.034396999 0.080164
0.060203999 -0.047022 0.046156
-0.0054179998 0.056332 0.09719
0.059273001 0.019402999 0.088812999
-0.032969002 -0.020942001 0
-0.020505 -0.078686997 0.031219
-0.018146999 0.049752001 0
0.015403 -0.0060419999 0.146185
0.063372999 0.03441 0.059230998
0.041806001 0.043954998 0.0099999998
0.0099999998 0.025729001 0.19621
-0.069007002 0.053277999 0.013869
-0.022493999 0.026033999 0
0.053040002 -0.050848 0.00072499999
-0.064753003 0.031277999 0.061002001
-0.046399001 -0.025284 0.111673
0.017798999 0.073889002 0.046874002
-0.0099999998 0.062922999 0.122545
0.0099999998 -0.054616999 0.109706
-0.0099999998 0.044427 0.19539601
0.027943 -0.011978 0.136317
-0.0091859996 -0.10801 0.084591001
0.0087829996 0.057057001 0.101508
-0.065915003 0.016484 0.071032003
-0.035595998 0.044624001 0.094935998
0.082690999 0.029557999 0.014195
0.012668 -0.030370001 0.0099999998
0.038895998 -0.078515001 0.014122
-0.0094250003 -0.009699 0.14835
-0.068380997 0.035011001 0.00303
-0.00624 -0.062398002 0.143732
0.011615 0.080663003 0.0059839999
0.068609998 0.0081470003 0.047708999
0.043517001 0.01121 0.113
0.056051999 0.0029200001 0.100189
-0.019326 0.069461003 0.058972001
-0.081527002 -0.0028240001 0.005479
-0.006331 0.0085260002 0.13125999
0.038973998 0.071033001 0.0055979998
0.066942997 0.021096 0.065325998
-0.050388999 0.069471002 0.017517
0.0026519999 0.083407 0.198328
0.048776999 0.015464 0.121104
0.078980997 -0.004464 0.0042110002
-0.034862999 -0.070738003 0.040164001
-0.073158003 -0.039737001 0.0068740002
0.020367 -0.050303001 0.114562
0.080540001 -0.037462998 0.011468
-0.00090400001 -0.063079998 0.145606
0.077161998 0.0082080001 0.042869002
0.037005 -0.068184003 0.0099999998
-0.031528998 0.037312001 0.122785
0.069838002 0.021934999 0.056343
0.00081699999 -0.082254998 0.053467002
-0.066134997 -0.043419 0.037393998
0.0099999998 -0.029609 0.193441
-0.055776 -0.059319001 0.033808999
0.066509999 0.025563 0.063988
0.0099999998 -0.063281998 0.136786
-0.0058249999 0.071107998 0.16766401
0.049095001 -0.017371001 0.115946
-0.071307003 -0.033250999 0.041425999
0.018772 0.053874999 0.096421003
-0.027124001 0.083567001 0.0094069997
0.00059000001 0.0044450001 0.113
0.040587999 0.054304 0.071519002
0.036690999 0.066056997 0.002448
-0.026621001 0.065190002 0.046723999
-0.018240999 0.047382999 0.119418
0.034577999 0.062500998 0.061119001
0.055353999 0.027553 0.0099999998
0.04349 0.059996001 0.001713
0.0099999998 0.037229002 0.19422799
0.0099999998 0.074625999 0.170224
-0.000527 0.024743 0
0.068668 0.029885 0.028748
-0.011408 0.084760003 0.018715
-0.065576002 0.0098240003 0.075912997
-0.001715 -0.0087740002 0.113
0.041625001 -0.062495001 0.023281001
0.0075210002 0.050664999 0.2
0.0058470001 -0.075644001 0.150888
-0.0097639998 0.047493 0.0099999998
0.0099999998 -0.082479998 0.176734
-0.064221002 0.009722 0.0099999998
0.020684 0.050175998 0.109231
-0.033078 -0.038412999 0
0.034627002 -0.080457002 0.0087559996
0.022537 0.076162003 0.037441
-0.076530002 -0.014694 0.012112
-0.011631 0.068212003 0.046569001
0.062401999 -0.023303 0.060033001
-0.024775 -0.047102999 0
-0.028024999 -0.060245998 0.060373001
0.0065939999 -0.0072300001 0.159271
-0.022166001 -0.058322001 0.089989997
0.0043449998 -0.069283001 0.16264901
0.030881001 -0.059657998 0.056053001
-0.025242001 -0.039988998 0.123704
-0.030676 -0.052141 0.093364999
-0.030879 -0.061992999 0.068529002
-0.0099999998 0.088397004 0.19293401
0.063584 0.044148002 0.003664
0.028223 0.082078002 0.01677
0.026977999 0.0095920004 0.137446
0.023541 -0.030695001 0.113
-0.0074519999 -0.119079 0.085271001
-0.068493001 -0.038378 0.010753
0.04981 0.023056 0.105385
-9.9999997e-05 0.049881 0.2
-0.031064 -0.001832 0.135638
-0.076862998 -0.0093 0.043110002
0.022863001 0.02421 0.0099999998
-0.0099999998 0.073985003 0.192601
0.0096800001 -0.011956 0.2
-0.036495 0.039921999 0.0099999998
-0.047871001 -0.056566 0.053792998
-0.000734 -0.066280998 0.154402
0.0048349998 0.070657998 0.166428
-0.021493999 0.083190002 0.0085519999
-0.057004001 -0.044961002 0.057537001
0.0058599999 0.052227002 0.10326
0.076439001 0.0090640001 0.0032810001
-0.001084 0.062222 0.0099999998
-0.000718 0.077172004 0.047210999
-0.001221 0.059762999 0.087169997
-0.0089919996 -0.070628002 0.166345
0.040135 -0.053009 0.0099999998
-0.0032639999 0.066127002 0.15397801
0.033553001 -0.064384997 0.034745
-0.050783999 0.012143 0.113443
0.051417999 -0.009238 0.113224
0.015831999 0.082861997 0.0077209999
-0.075689003 -0.00072299998 0.051555999
0.076398998 -0.0083170002 0.0099999998
-0.011656 0.085584 0.016154001
-0.049164999 0.019706 0.118284
0.021548999 -0.016333001 0.113
0.017573999 0.084367 0.0087789996
0.018965 0.033002999 0.113
0.079112999 -0.029112 0.007088
0.078846 -0.013525 0.034827001
-0.0062199999 -0.072890997 0.19
-0.051300999 0.031429 0.094203003
0.0090699997 -0.074904002 0.048989002
-0.019862 0.001819 0.113
0.045173001 0.053529002 0.044860002
-0.001525 0.077160999 0.184293
0.06205 0.02331 0
-0.024011999 -0.067284003 0.040646002
0.017667999 0.053787999 0.105913
0.023701999 0.063129 0.056919001
-0.033661 -0.032591999 0
-0.056738999 0.021469999 0.083295003
0.047180001 0.015818 0.122191
-0.032501001 -0.025746999 0.0099999998
-0.01981 0.061414 0.082292996
0.0035349999 -0.016206 0.149762
0.004042 0.045756999 0.19
-0.075058997 -0.004042 0.025969001
0.010961 0.01332 0.14520299
-0.016204 0.07649 0.040174
0.027373999 0.04716 0.11124
-0.019409999 -0.051718 0.104258
0.031003 -0.061345998 0.069931999
-0.004224 -0.061728999 0.141893
0.0090100002 -0.13290501 0.114246
0.078207001 -0.0059420001 0.012358
0.02619 -0.057865001 0.072176002
-0.0062429998 0.033562001 0.0099999998
0.053264 -0.049387001 0.036513999
0.053410001 -0.022781 0.0099999998
-0.0041390001 -0.005934 0
-0.031198001 -0.076162003 0.032388002
-0.031870998 0.050136998 0.085041001
-0.035569999 0.055854999 0.058244999
0.0095260004 -0.089482002 0.188907
-0.040447 -0.054117002 0.053268999
0.01418 0.0084250001 0.139633
0.046698999 -0.070593998 0.0078849997
0.046856999 0.073377997 0.0092850002
-0.048289999 -0.0067690001 0.122682
0.035597999 -0.059362002 0.046707001
-0.074562997 0.0050260001 0.0099999998
-0.066809997 0.040231999 0.012204
0.042986002 0.046464 0.072759002
0.082016997 0.018801 0.022446999
0.042824 -0.015285 0.113
0.0064090001 0.070588 0.166234
0.0078180004 -0.062955998 0.145266
0.0099999998 0.059965 0.125331
0.011669 -0.081161998 0.0062759998
-0.018309001 0.013183 0.0099999998
-0.061668001 0.054211002 0.0059930002
0.053792998 0.058194999 0.039900001
0.0024359999 -0.079957999 0.19197901
0.0084020002 0.090000004 0.19334701
0.046884 -0.035633001 0.0099999998
0.029391 -0.082170002 0.015819
0.016949 -0.019102 0.0099999998
0.0036530001 -0.033810999 0
-0.049389999 0.033994999 0.0099999998
0.021436 0.051904999 0
-0.0068689999 -0.066877998 0.126803
-0.0099999998 0.081242003 0.197256
-0.069790997 -0.035213001 0.041935001
-0.071904004 0.017297 0.052988
-0.052133001 0.044204999 0.070909001
-0.061960001 0.023669001 0.061455999
-0.069872998 0.034660999 0.042649999
-0.0025289999 -0.043381002 0.126775
0.022808 -0.063428998 0.056449998
-0.027992001 -0.084008999 0.011241
0.052592002 -0.019107999 0.101116
-0.0085840002 -0.11334 0.077593997
-0.072301999 0.041051999 0.02599
-0.025687 -0.08241 0.0085829999
-0.001041 -0.053723 0.119899
0.067319997 0.051288001 0.021369999
0.075963996 0.004255 0.02231
-0.044000998 -0.051727001 0.0099999998
-0.081077002 -0.0057899999 0.032795999
0.026881 -0.077422999 0.031207999
0.055094 0.042454999 0.06645
-0.040927999 -0.0097920001 0.127492
-0.011673 0.011052 0.113
0.012612 0.047770999 0.0099999998
-0.032924 0.055484001 0.065242998
0.067038 -0.012255 0
-0.057305001 -0.032279 0.0099999998
-0.017855 0.061852999 0.082147002
-0.055156998 -0.049240999 0.030639
-0.011949 -0.054079998 0.108394
0.0085310005 -0.117851 0.085302003
0.064424999 -0.024412001 0.051371999
-0.0099999998 -0.0095499996 0.19434699
-0.011848 0.059700999 0.091963999
-0.0091310004 -0.013596 0.13917799
-0.028169001 0.081919 0.017268
-0.069162004 0.033874001 0.045724999
-0.058380999 -0.002324 0.101393
-0.054878999 -0.0080899997 0.108301
0.028499 -0.031181 0.12770499
-0.0099999998 0.065596998 0.126959
-0.018332001 -0.00087400002 0.113
0.0012619999 0.073356003 0.17384
0.0095589999 0.056779999 0.2
0.033847999 0.045956999 0.103474
-0.016705001 -0.059737001 0.089024
-0.0099999998 0.081169002 0.177788
0.077518001 0.025959 0.031466998
-0.001256 -0.078934997 0.013145
-0.063864999 -0.039005999 0.024521001
-0.024017001 -0.003759 0
0.020483 -0.065454997 0.050415002
-0.077491999 -0.026961001 0.0059170001
0.047639001 -0.025722999 0
-0.055020001 -0.00392 0.110322
-0.0042920001 -0.081078999 0.2
0.076087996 0.021189 0.038445
0.063943997 0.020664001 0.056108002
0.05996 0.045519002 0.02306
-0.010346 0.069413997 0.042913999
-0.059955001 0.061832 0.020617001
-0.0087489998 -0.0085739996 0.2
0.0044999998 0.073890999 0.14607
0.022977 0.067806996 0.039422002
-0.00067899999 0.078555003 0.188123
-0.018014001 0.015127 0
-0.071659997 0.022988001 0.0099999998
-0.019644 -0.065536998 0.050740998
-0.003755 -0.064318001 0.19
-0.0068740002 -0.076325998 0.046099
0.0088560004 -0.095959 0.049102999
0.059454001 0.021272 0.072970003
-0.035496999 -0.023876 0
-0.05074 0.028665001 0.090076998
0.0045159999 -0.042615999 0.19
-0.0023459999 0.010317 0.2
0.063685 -0.013022 0.062973
0.027869999 0.044213001 0.117743
0.018123001 0.0035319999 0.144605
-0.008773 -0.104382 0.063074999
-0.071491003 0.020633001 0.027000999
-0.000118 0.073926002 0.19
0.052924 -0.022345999 0.105261
0.061264999 -0.017805999 0.083899997
-0.061802998 -0.01362 0.084765002
0.0069360002 -0.041382998 0.0099999998
0.0099999998 -0.039122 0.19148
0.070403002 0.0063709999 0.042149998
-0.01767 0.059455 0
0.0073830001 0.073264003 0.054783002
-0.03059 0.069297001 0.050845999
-0.079253003 0.016308 0.005713
-0.029308001 -0.056788001 0.084083997
-0.064309999 -0.01757 0.075106002
-0.008715 0.081877999 0.0063499999
0.022132 -0.046666 0.0099999998
0.0055959998 -0.056766 0.095380001
0.007979 0.015305 0.2
-0.005628 0.080035999 0.2
-0.0035389999 0.065644003 0.123412
-0.013084 0.062886 0.081901997
-0.002786 -0.013171 0.0099999998
0.0066209999 -0.116918 0.108023
-0.050246 0.060059998 0.041157
-0.0069800001 -0.077216998 0.15521
0.054683 -0.0018 0.106333
0.060933001 -0.019734999 0.068438999
0.02908 0.053638998 0.092293002
0.032765001 0.077347003 0.027214
0.074474998 0.019219 0.044325002
-0.064554997 -0.060045 0.013697
0.031355999 0.037717 0.0099999998
0.0070179999 -0.050476 0.118563
-0.050533 0.0075380001 0.117944
0.001178 0.041706 0.19
0.0094879996 0.059636999 0.081309997
-0.030644 0.043216001 0
0.0049049999 0.080448002 0.035158001
-0.0099999998 0.050875001 0.105666
0.062995002 -0.028092001 0.051233001
-0.018964 -0.01926 0
-0.0074720001 -0.091420002 0.062155001
-0.042656999 -0.051261999 0.075645998
-0.058924001 -0.022526 0.074050002
-0.059843998 0.003369 0.085210003
-0.005682 0.071612999 0.000139
-0.053729001 -0.0058550001 0.106901
-0.0049749999 0.078449003 0.158593
-0.034465 0.053135999 0.069557004
-0.024894999 -0.083506003 0.014524
-0.0099999998 -0.072861999 0.17228
0.0065799998 -0.066147998 0.124798
-0.072228998 0.0068109999 0.034766998
0.041790999 -0.033852 0.113829
0.003766 -0.059902001 0.0099999998
-0.032988999 -0.053482 0.071653001
-0.061133001 0.026760001 0.077513002
0.0051569999 0.020802001 0.0099999998
-0.0044920002 -0.114871 0.072806001
0.056944001 0.066253997 0.014624
-0.0099999998 0.078043997 0.171057
0.025257999 -0.041820001 0.117417
0.0089919996 -0.003978 0.19
-0.0096420003 -0.084476002 0.040426999
-0.0086249998 -0.070586003 0.166227
-0.043225002 -0.000825 0.0099999998
0.0099179996 -0.089211002 0.045341
0.062353998 0.043786999 0.046185002
0.001061 0.062316999 0.114273
-0.046620999 -0.022941999 0.119945
0.0099999998 -0.023465 0.19370399
-0.0035379999 0.065635003 0.0099999998
-0.048655 0.011682 0.119367
-0.019641001 0.048943002 0.118973
-0.036021002 0.046998002 0.086237997
-0.022601999 0.048898999 0.0099999998
0.0023409999 -0.061732002 0.112665
0.060502 0.027093999 0.078525998
-0.031801 0.046257 0.097889997
0.052816998 0.036679 0.081710003
-0.0098350001 0.033422001 0.0099999998
-0.027302001 -0.062528998 0.054483999
0.026296999 0.072756 0.045237001
0.065678999 -0.018177999 0.070735998
-0.0071919998 -0.08828 0.057277001
-0.0041769999 -0.073302999 0.173693
0.015411 0.086496003 0.011287
-0.0082940003 -0.057422001 0.090777002
-0.043001998 0.056650002 0.039395001
0.00030300001 0.081202 0.19539499
0.0057720002 -0.090000004 0.19515
-0.056205999 0.002717 0.107543
-0.066495001 0.038403999 0.003215
-0.0052180002 -0.010126 0.0099999998
0.013883 -0.007342 0.113
-0.028620999 0.081889004 0.017092999
0.026520001 0.051755 0.091444999
-0.0099999998 0.080086999 0.17453501
0.035953 -0.047734 0.083979003
-0.053289998 -0.02317 0.10298
0.0099999998 0.066143997 0.137794
0.034449 0.070548996 0.0099999998
-0.041103002 -0.054361001 0.051036999
-0.039625999 0.005835 0.128979
0.024522001 -0.0081669996 0.139396
0.019122001 0.064829998 0.0099999998
-0.012905 0.024759 0.0099999998
-0.043364 0.011895 0.0099999998
-0.065342002 -0.054451998 0.021032
0.076576002 0.002265 0.021477001
-0.047699001 0.042897999 0.068907999
-0.014388 0.040872999 0
0.034579001 -0.033448 0.115018
-0.082234003 -0.018680001 0.021881999
-0.01082 -0.061983 0.0099999998
0.069762997 0.020926001 0.057153001
0.0079739997 0.078100003 0.186874
0.067036003 -0.032044001 0.029368
0.034508001 0.065273002 0.054345001
0.0032860001 -0.073527999 0.174312
0.010916 0.057705 0.087669
-0.0099999998 0.067033 0.150096
0.054740999 -0.017576 0
-0.001346 0.011035 0.158254
0.062715001 -0.024955001 0.057556
0.0045619998 0.059819002 0.136648
-0.0074609998 -0.052823 0.2
0.02812 0.047198001 0.10286
0.051759001 0.026087999 0.0099999998
-0.0030199999 -0.106909 0.09499
0.030607 0.053215999 0.090807997
0.0059429999 -0.070422001 0.063961998
0.088964 -0.002812 0.011399
-0.051470999 -0.055243999 0.051096
0.056384999 0.056738 0.039218001
0.044881001 -0.032145999 0.108979
0.048215002 0.035971999 0.0099999998
-0.044470999 -0.035714999 0.095174998
-0.045364998 -0.047789998 0.063216999
0.0099999998 0.064521 0.192442
0.012038 0.010688 0.146431
-0.010408 0.012964 0.113
0.0074510002 0.073968001 0.052680001
-0.012571 0.077187002 0.0041069998
0.047607001 -0.043838002 0.067155004
-0.0099999998 -0.069981001 0.19860899
-0.048376001 -0.020053999 0
-0.028867999 -0.067876004 0.057241999
-0.082399003 0.017795 0.021912999
-0.0070139999 -0.126515 0.097273998
0.059833001 0.0086390004 0.081207
0.007398 -0.042050999 0.2
-0.021465 -0.069031 0.058986001
-0.047781002 -0.033321001 0
-0.034297999 0.066987999 0.024599001
-0.019482 0.007768 0.143038
-0.0097930003 -0.062277999 0.19
-0.00188 0.071442999 0.2
-0.0069479998 -0.066467002 0.12567399
-0.050069999 0.033838 0.080959998
0.054053001 0.010341 0.10941
0.035560001 -0.016333001 0.129967
0.073564999 -0.026799999 0.042571999
0.067561001 -0.027464001 0.036924001
0.034922 -0.059914 0.046381
0.037648998 0.032946002 0.122011
-0.0023650001 -0.054319002 0.113283
-0.0035540001 -0.067238003 0.19
0.046870001 0.044024002 0.084294997
0.071327001 -0.050342999 0.012977
-0.076302998 0.0058789998 0.019757999
0.020507 0.085155003 0.0095619997
-0.002264 -0.009993 0.19
0.034731001 -0.04961 0.092923999
0.0058960002 0.086405002 0.180454
0.028359 0.053603999 0.081376001
-0.000826 -0.031598002 0.1354
0.050914999 -0.011919 0.117694
-0.034779001 0.061168 0.064101003
-0.0050559998 -0.073342003 0.17380001
0.0085530002 -0.02224 0.113
0.030266 0.041742999 0.119905
-0.066901997 -0.019795001 0.066205002
0.00079899997 0.056062002 0.0099999998
-0.047316 0.020166 0.12133
0.023464 -0.065146998 0.069211997
0.0087660002 -0.091619998 0.19533899
-0.00016900001 -0.077086002 0.18408801
-0.028473999 -0.019676 0.113
0.0099999998 0.083637998 0.195177
0.017036 0.012975 0
0.036885001 -0.073586002 0.029720999
-0.026217001 0.026447 0.13147999
-0.050218001 -0.060738001 0.039517999
0.062082 -0.001665 0.077880003
-0.01551 0.052035999 0.106022
-0.0099999998 0.059670001 0.12343
0.085565001 0.0046720002 0.0079969997
-0.0093360003 -0.028224999 0.19
-0.0078739999 0.061161 0.140333
-0.0056770002 0.0096509997 0.131772
0.045621999 -0.027976001 0.114063
0.036970001 0.076195002 0.023092
0.0099999998 -0.076035999 0.190735
0.008587 -0.055126999 0.123754
-0.001737 -0.049490999 0.12254
-0.0097599998 0.058166001 0.13210499
-0.046383001 -0.0019490001 0.113
-0.036680002 0.010601 0.1304
-0.019293999 -0.070276998 0.032715999
-0.053656999 -0.018006001 0.106101
0.048831001 -0.015187 0.118643
-0.0099999998 0.078822002 0.197791
0.009788 -0.093713 0.055333
-0.0027099999 -0.067975 0.12981801
-0.005531 -0.061815999 0.075937003
0.072903 0.023843 0.0099999998
-0.049008999 0.021596 0.116242
3.1e-05 0.061629999 0.080879003
0.003337 -0.028602 0.113
-0.04408 -0.036407001 0.10389
0.021299001 -0.0071669999 0
0.073997997 -0.002238 0.055633001
-0.0029869999 -0.107505 0.096038997
0.001657 0.081006996 0.19486
-0.022195 0.049343001 0.108793
-0.032813001 0.016543999 0.113
-0.049175002 -0.018726001 0.118828
-0.028759001 0.078645997 0.026524
-0.018626001 -0.034088999 0
-0.062364001 0.025760001 0.076034002
0.030621 0.059346002 0.057642002
0.0099999998 -0.057916999 0.12149
-0.075268999 -0.011016 0.0028339999
-0.027977001 0.012392 0.13612901
0.00296 -0.080663003 0.035661001
0.056696001 0.026813 0.0099999998
0.006366 -0.038497001 0.19
-0.045313999 0.047261 0.081179
0.00095800002 -0.115463 0.110911
0.024971999 -0.012211 0.113
-0.041816998 0.029054999 0.120854
0.0091120005 -0.069057003 0.066114999
0.044255 -0.025828 0.117497
0.050783999 -0.0058599999 0.12092
0.043919001 0.035597999 0.105633
-0.0099999998 -0.0069849999 0.19756299
-0.025092 0.0063 0.139254
-0.037914999 0.060495 0.060562
0.037996002 0.019025 0
0.013502 0.068108 0.066336997
-0.0094609996 0.085578002 0.17818201
0.001679 -0.049208999 0.19
0.002899 -0.070081003 0.066739
-0.068575002 -0.023319 0.036194999
0.050005998 0.059967998 0.013223
-0.0091239996 0.051112998 0.112727
0.034596 0.036850002 0.0099999998
-0.0031630001 -0.0079929996 0.159923
0.061517999 -0.054883 0.029825
0.039262999 0.040499002 0.108049
0.084530003 -0.0082430001 0.021236001
-0.055316001 -0.051476002 0.025231
-0.0099999998 0.057971001 0.19757099
0.012471 -0.077142999 0.011453
-0.015830999 0.031566001 0.113
-0.0026690001 -0.061811998 0.142123
-0.028191 -0.044682998 0.116043
0.01313 -0.053226002 0.103258
0.0099999998 -0.055041999 0.195382
-0.0058800001 -0.100781 0.050434001
0.035937 -0.058194999 0
0.0045150002 0.082589 0.169967
0.052995 0.030384 0.0099999998
-0.041053001 0.033380002 0.116447
-0.0099999998 0.083462998 0.17246599
-0.049609002 -0.05446 0.032113999
-0.026022 0.0087090004 0
-0.031950001 -0.067059003 0.054152001
0.0061599999 -0.076327004 0.18200099
0.026394 -0.050631002 0.104237
-0.0084459996 0.033066999 0.19
-0.036347002 -0.061957002 0.036580998
0.000504 -0.066800997 0.060557
0.073177002 0.034000002 0.035530999
0.044224001 -0.045279998 0.087917
-0.032246999 0.063279003 0
-0.019432999 -0.071471997 0.001622
-0.039889999 0.058538999 0.062144998
0.039641999 -0.073004 0.026587
-0.046188001 0.047224998 0
0.0045949998 -0.010301 0.0099999998
-0.028331 -0.081479996 0.0083520003
-0.049283002 -0.021189 0.116239
-0.014877 0.059287999 0.0099999998
-0.006978 0.061650999 0.075464003
-0.052563999 -0.023034001 0.105012
0.0099999998 0.057231002 0.119392
0.016359 0.023362 0
0.018572999 0.015498 0
0.016816 -0.002379 0.14851899
0.016465001 -0.0079840003 0.14485
0.018386999 -0.025838999 0.0099999998
-0.034889001 0.052875001 0.084541
0.0032579999 -0.0054600001 0.113
0.016902 0.050964002 0.109093
-0.036759999 0.080958001 0.011597
-0.051957998 -0.049667999 0.062266
-0.022402 0.075154997 0.011499
-0.0083879996 -0.085207999 0.177165
-0.0069070002 -0.015504 0.14788701
0.020686001 0.066799 0.045069002
0.019911001 -0.061841 0.080982998
-0.0061679999 -0.104383 0.057248
-0.0094360001 0.080840997 0.16516601
0.039719 0.031856999 0.12
-0.049633998 0.029525001 0.091816999
-0.024080999 -0.021794001 0.0099999998
-0.002757 0.071307003 0.063224003
0.044950001 0.0088750003 0.113
0.056843001 -0.019327 0.0099999998
0.0076219998 0.064967997 0.150795
-0.0092559997 -0.045021001 0
0.027768999 -0.0053719999 0.137481
-0.001043 -0.110717 0.063763
-0.077609003 -0.017826 0.035944998
-0.041958999 -0.072793998 0.023259001
-0.0099999998 0.051458001 0.105058
0.082406998 -0.018107999 0.021708
-0.070078999 -0.034038998 0.0099999998
0.048478 0.019707 0
-0.031780001 0.049157001 0.098952003
0.0082419999 -0.074657001 0.148176
-0.042413 -0.016228 0
0.064203002 -0.024277 0.071506001
0.038782999 0.008293 0.12923101
0.0099999998 -0.022667 0.19881999
-0.017269 -0.054892998 0.0099999998
-0.037427001 -0.07615 0.022444
-0.0058630002 0.076196998 0.181646
-0.035819001 -0.066817001 0.021832
0.028481999 0.050542999 0.100985
-0.0070480001 -0.077431999 0.1558
0.073183998 0.0056150001 0.031994998
0.064336002 -0.01534 0.076332003
-0.068194002 0.028015999 0.00072399998
-0.02909 0.082037002 0.0087559996
-0.011223 0.051220998 0.117204
-0.044402 0.063707002 0.01324
-0.041361 0.052405 0.074956998
0.039282002 0.048512001 0.074156001
-0.0099999998 -0.060772002 0.13459601
0.061836999 0.053245001 0.031753998
-0.0044630002 0.016158 0.14940199
-0.025339 0.047784001 0.11307
0.076393001 -0.022058999 0.037043002
0.043343998 0.032441001 0.11231
-0.0071439999 0.065536998 0.19
0.029038001 0.065136999 0
0.015079 0.0067690001 0.150281
0.036407001 -0.001718 0.131852
0.026287001 0.01701 0.113
-0.0034680001 -0.108212 0.097006001
-0.0099999998 0.013574 0.197743
-0.053467002 -0.0041609998 0.109213
-0.037677001 -0.066088997 0.002783
0.056689002 0.01117 0.091395997
0.042716 0.060311999 0.0099999998
-0.063509002 -0.029727999 0.045972999
0.030489 -0.032501001 0
0.0099999998 0.078414999 0.196381
-0.052575 0.054166 0.051943999
0.0099999998 -0.067121997 0.195879
-0.0089680003 -0.070413999 0.040114999
0.033479001 0.053038001 0.072033003
-0.0040270002 0.048179001 0.2
-0.019524001 -0.067475997 0.064677
0.025765 -0.062564 0.075444996
0.0069180001 -0.017488001 0
-0.004888 0.016372999 0.14831799
-0.058219999 -0.03472 0.052361999
-0.047736 0.055023 0.034368999
-0.051086001 -0.047575999 0.047598999
-0.0032790001 -0.069404997 0.162985
0.087476 -0.0093 0.0096150003
-0.059858002 0.036435001 0.043257002
-0.00036500001 -0.082235001 0.19823401
-0.029066 -0.0077490001 0.0099999998
0.077359997 0.035884999 0.021996999
-0.021411 -0.020269999 0.0099999998
0.035473 -0.057909001 0.051732998
-0.0075480002 -0.075283997 0.19
0.0099999998 0.059491001 0.1109
0.049304999 0.062945999 0.035544001
-0.027040999 0.0092620002 0.137449
-0.0088839997 0.068565004 0.131437
-0.013387 -0.075634003 0.0099999998
-0.001596 -0.061735 0.112671
0.010667 -0.072116002 0.032242
-0.015822999 -0.066133998 0.070775002
0.000147 0.088815004 0.013389
-0.063715003 -0.019633999 0
-0.011663 -0.0012469999 0.0099999998
-0.0099999998 0.080843002 0.1937
0.0087909997 -0.059310999 0.083103001
-0.0082919998 -0.110193 0.093032002
-0.011573 0.058019999 0.085947998
0.0021860001 0.0091949999 0
0.0062770001 -0.113874 0.073904999
-0.000489 -0.12863301 0.117392
0.052698001 0.066055998 0.022172
-0.026489999 0.074074998 0.01253
0.064479999 0.057762999 0.017674999
0.012224 -0.013874 0.0099999998
0.051383 0.014019 0
0.028147001 0.035038002 0.12552001
0.001798 -0.063799001 0.071148999
0.017566999 -0.052370999 0.110128
0.084890999 0.019504 0.013605
0.008649 -0.052639 0.114545
-0.0040170001 -0.079729997 0.191351
0.030370001 0.068434998 0.053355001
-0.021594999 -0.078709997 0.0060029998
0.025217 -0.084931001 0.010154
-0.0039949999 -0.060954999 0.13976599
0.0099999998 -0.066174001 0.19582701
0.060628001 0.04879 0.042163
0.016113 0.0055010002 0.142296
0.0099999998 -0.081697002 0.17525101
0.0099999998 0.042041 0.193166
0.0099999998 0.089197002 0.19217999
0.032372002 -0.078002997 0.026236
0.001249 0.072884999 0.172546
0.0065810001 -0.051674001 0.0099999998
0.062350001 0.028709 0.071249001
0.0013370001 -0.016003 0.151335
0.001439 -0.053541999 0.119402
-0.001756 -0.091453999 0.194324
0.0099999998 0.062585004 0.133706
-0.072131 -0.032106999 0.012559
-0.038352001 -0.029131999 0
0.057291999 0.001665 0.096368998
-0.0099999998 0.057794001 0.116168
-0.000102 0.078737997 0.18862601
0.0099999998 -0.054258 0.197079
-0.0030149999 -0.13495 0.106792
0.051816002 -0.004431 0.0099999998
-0.0099579999 0.016123001 0.113
0.0044869999 0.063368 0.070748001
0.0099999998 0.068728998 0.194344
0.017287999 0.080066003 0.0062890002
-0.014565 -0.061149001 0.086130999
-0.055778999 -0.020028999 0.088108003
-0.057955001 0.037163001 0.068129003
-0.0063919998 0.066794001 0.155811
-0.001945 0.026431 0
-0.053438 -0.050721999 0.056832001
-0.008374 0.075179003 0.149608
-0.0022819999 0.052715 0.118038
0.004251 -0.089786999 0.064672999
-0.072127998 0.016844001 0.052595999
0.046324 -0.056341 0.033142999
0.077005997 0.012719 0.011793
-0.04927 0.006542 0.118714
0.046342999 -0.058497 0.026046
-0.012574 0.056954999 0
0.070573002 -0.028647 0.050269999
-0.015972 0.050239 0.117312
-0.014231 0.055396002 0.094039001
-0.0099999998 -0.060107999 0.19405
-0.036633998 0.071015999 0.036529999
-0.055481002 0.049136002 0.0099999998
-0.034058999 -0.042360999 0.105702
-0.042808998 0.063621998 0.0099999998
0.051465001 0.019866001 0.104885
-0.028162999 -0.010717 0
-0.013954 0.057723999 0.096534997
-0.069897003 0.001684 0.067984998
0.071722999 0.010541 0.00075399998
-0.033241 -0.068984002 0.020377999
-0.0099999998 -0.079245001 0.16976599
-0.045940999 -0.035626002 0.090559997
0.081100002 -0.0094950004 0.030565999
0.029278999 0.032871999 0
0.055272002 -0.0060720001 0.0099999998
0.017646 -0.044976 0.0099999998
0.070642002 0.012278 0.059618998
0.054235 -0.013086 0.099395998
0.078682996 0.013907 0.0051139998
-0.0099999998 -0.046085 0.194271
0.079433002 0.017170001 0.030979
0.0059440001 -0.079503 0.19072799
0.047373999 0.025056999 0.0099999998
-0.0099999998 -0.056008 0.121055
-0.025024001 -0.042525001 0.122262
0.02595 -0.063712001 0.071970001
-0.072999001 0.0045980001 0.057186
0.045474 0.02413 0.117222
0.039198 0.057121001 0.04617
0.0063590002 0.050097 0.109934
0.0090260003 0.054322001 0.121544
-0.050664 0.033677001 0.079369001
0.0038379999 -0.015076 0.0099999998
-0.070276998 0.041136 0.030887
0.052372999 -0.012592 0.106963
-0.0099999998 -0.031700999 0.195657
0.002595 -0.059315 0.106024
0.072310999 0.02039 0.0022100001
-0.0099999998 -0.0046999999 0.19471399
-0.063690998 0.033121999 0.06058
0.013297 0.0023769999 0.113
-0.058045998 0.014134 0.0099999998
-0.034184001 -0.016967 0.0099999998
-0.05587 0.013643 0.102155
-0.065526001 0.024251999 0
0.0020280001 -0.089443997 0.0099130003
0.0096009998 -0.065761 0.057587001
-0.058672 0.012213 0.082943
0.081318997 0.011576 0.028709
-0.067909002 -0.047637001 0.0068890001
-0.061887 -0.015967 0.083149001
0.015965 -0.054791 0.103966
-0.059436999 -0.009509 0.0099999998
-0.0026130001 -0.069785997 0.19
-0.0041669998 0.067419998 0.073802002
0.037723999 0.05737 0.068651997
-0.002565 0.004741 0.113
0.036168002 -0.069638997 0.040727001
0.072402999 0.040732 0.0068299999
-0.002783 0.013286 0
-0.041145001 -0.015812 0.12648501
-0.053544998 -0.0037169999 0.114767
0.004038 0.081000999 0.034042001
-0.018247001 -0.080706999 0.026611
-0.022586999 0.053010002 0.095936
-0.0087909997 0.032439999 0.0099999998
0.023084 0.011901 0.0099999998
0.055091999 -0.043079998 0.044319998
0.016739 -0.0031659999 0.113
-0.036377002 0.0057760002 0.0099999998
-0.0097209997 0.070573002 0.13695499
0.00031500001 -0.051686 0.11904
0.024953 0.082415 0.017689001
-0.0096279997 -0.082353003 0.036850002
-0.025595 -0.027584 0.131045
0.00080099999 0.025603 0.2
0.0051850001 0.0095969997 0.0099999998
-0.004764 0.014951 0.19
-0.0099999998 0.036548998 0.19591001
-0.068833999 0.033737 0.019784
-0.054166 0.0062830001 0
-0.068504997 -0.013039 0.065444
0.011472 -0.058157999 0.096711002
0.075365998 -0.044264 0.013033
-0.0070369998 0.039662998 0.19
-0.051167 -0.011565 0.117161
-0.0066669998 0.062327001 0.1143
0.00059800001 0.074432001 0.031033
-0.049238 0.054809 0.001061
-0.036897998 0.018533001 0.0099999998
0.00715 0.046099 0.19
0.06566 0.039445002 0.003147
0.029232999 -0.005934 0
0.074961998 0.033103 0.032584
0.036497001 -0.068921998 0.0037730001
0.0026819999 -0.0077849999 0.2
0.057445999 0.0046890001 0.102756
0.00038899999 -0.069838002 0.048923999
0.047692001 -0.0064949999 0.123146
0.0045579998 -0.090000004 0.194115
0.041226 -0.055151999 0.048179999
-0.0053070001 -0.039374001 0.19
6.1999999e-05 0.041809998 0.19
0.0078429999 -0.107137 0.088638
0.049835 -0.046027001 0.055078998
-0.034394 -0.060736001 0.065815002
0.0099999998 -0.023027999 0.19989499
0.060083002 -0.034044001 0.047745001
0.016733 0.066904999 0.067983001
0.0099999998 -0.077331997 0.171186
-0.061879002 0.025372 0.060463
-0.049968001 -0.0087270001 0.120527
-0.00666 0.071351998 0.16833299
-0.026043 -0.047982 0.104834
-0.0099999998 0.064188004 0.194786
-0.046728998 -0.063763998 0.03779
0.018754 0.080858998 0.006908
0.03906 0.047035001 0.079471998
0.0061769998 0.016455 0
-0.015954001 -0.048315998 0
-0.00028000001 0.060074002 0.108109
0.033601001 0.062535003 0.062657997
0.047561999 -0.052563 0.042798001
0.055851001 0.02644 0.078218997
-0.0051699998 -0.090833999 0.19562501
0.0075150002 -0.049026001 0.104425
-0.0099999998 0.074528001 0.166495
0.066265002 -0.020114999 0.047571
0.039126001 -0.052986 0.059857
0.052026998 0.0091380002 0.116055
-0.021415001 -0.070542999 0.054579001
-0.0020260001 -0.018692 0.113
-0.016373999 0.023840999 0.0099999998
0.037548002 0.062096 0.057192001
0.020981999 0.065279998 0
0.0099999998 -0.015758 0.19079299
0.0098040001 -0.113813 0.087104999
0.0061670002 0.082887001 0.17078599
-0.029154999 -0.065866999 0.039508
0.0040779999 -0.081412002 0.032813001
-0.017109999 0.052852001 0.108984
-0.012373 0.074565999 0.0099999998
0.0099999998 0.079649001 0.176465
-0.071378998 -0.003513 0.0099999998
-0.015907999 0.080026999 0.029971
0.062547997 -0.032930002 0
-0.014136 0.069605999 0.061574001
0.082787998 -0.0088470001 0.025994999
0.023294 -0.084008999 0.013982
0.045109 -0.027334001 0.116407
0.067752004 0.026985001 0.036557
0.00097499997 0.091050997 0.195546
0.048645001 0.035036001 0.094815001
-0.016259 0.064014003 0.076738998
-0.0099999998 -0.060927998 0.195024
-0.054184999 -0.058605 0.038231999
-0.0099999998 -0.079094 0.196548
0.037078999 0.030014001 0
-0.045244001 0.037268002 0.089249998
-0.029166 -0.00092999998 0
0.070088997 0.028152 0.05198
0.037046 0.015966 0
-0.00758 0.031748999 0.2
0.0051489999 -0.109972 0.098935001
0.0021939999 -0.079177998 0.2
-0.022567 -0.052715998 0.105412
0.036488 -0.072828002 0.032265998
0.0099999998 -0.021983 0.190863
0.011627 0.075167 0.046725001
0.048485 0.033877 0
0.055939998 0.044690002 0.038027
0.0092550004 -0.031748999 0.13409901
-0.018136 -0.075343996 0.042410001
0.055263001 -0.066354997 0.017166
0.039684001 0.028873 0.122425
-0.049219999 0.025512001 0.101943
0.02754 0.057916999 0.084214002
0.0087839998 0.065140001 0.122027
0.0023419999 -0.088408001 0.063308001
0.0099999998 0.077873997 0.17470901
0.031365 0.053061999 0.076576002
0.017224999 -0.028123001 0.113
0.0047840001 0.0090659996 0.19
-0.017546 0.074942 0.043933
0.067663997 -0.033959001 0.049309
-0.045244999 0.026245 0.117877
-0.018591 0.029273 0.113
0.035144001 0.0098200003 0.131604
0.073816001 -0.037083998 0.028819
-0.071097001 -0.024033001 0.025911
0.046055999 0.013835 0
-0.0099999998 0.068931997 0.147461
0.0099999998 -0.075611003 0.167614
-0.00052399997 0.061721999 0.092643999
-0.0039070002 -0.090000004 0.199737
-0.00032600001 -0.075779997 0.180501
-0.02004 0.080398999 0.026471
0.021643 0.069799997 0.056626
0.013524 0.0059130001 0.113
0.00050299999 0.068227999 0.130511
0.0099999998 -0.057121001 0.19247501
-0.072293997 -0.034603 0.036726002
-0.0061639999 0.083306 0.171938
-0.0099999998 0.081791997 0.191012
0.0094140004 -0.069839999 0.134942
0.0096840002 -0.0051440001 0.19
0.043210998 0.046746001 0.071344003
0.0089600002 0.063208997 0.0099999998
0.0095269997 0.058873001 0.10481
-0.054251 -0.065259002 0.021573
-0.033939 -0.039772 0.0099999998
0.037163001 -0.070479997 0.036984
0.050053 -0.013602 0.115143
7.1000002e-05 0.014338 0.19
0.0070819999 -0.077950999 0.012472
0.0020280001 -0.038497999 0.0099999998
0.0072550001 0.052799001 0.11736
0.014728 -0.056988999 0
-0.006575 0.061934002 0.113218
0.0099950004 -0.104433 0.072286002
0.0099999998 -0.085171998 0.19041
-0.033363 0.065527 0.055613
-0.026024999 -0.0020300001 0
0.026502 -0.040968999 0.122605
-0.055303998 0.043262001 0.043230999
0.056253999 0.045774002 0.034628998
-0.0099999998 0.072444998 0.19436
0.061267 -0.035475001 0.062697999
0.002574 -0.077062003 0.043531999
-0.067533001 0.0067099999 0.052967001
-0.048062 0.0024989999 0.115494
0.037427999 -0.054577999 0.076086998
-0.043315999 -0.049649 0.078561999
-0.013227 -0.05277 0.0099999998
-0.018909 -0.055108 0.091558002
-0.0078739999 0.0045779999 0.19
-0.052561 -0.055103 0.023556
-0.024101 2.8e-05 0
0.006906 -0.035852998 0.19
-0.029866001 0.046023998 0.102883
-0.004766 0.087382004 0.19
-0.024669999 -0.049456999 0.0099999998
-0.073394001 -0.047614001 0.0095380004
-0.0097230002 0.084977999 0.019058
0.029743001 0.060497999 0.055794001
-0.078725003 -0.032559 0.0072579999
0.0099999998 -0.053100001 0.191212
0.053824 -0.051261 0.0099999998
0.071241997 0.0072030001 0.060821999
0.034483999 0.0045019998 0.132826
0.065036997 -0.017193999 0.054551002
-0.001926 -0.00091100001 0.2
0.028340001 0.0033090001 0.137366
-0.050595 0.055167999 0.027643001
-0.010062 0.081221998 0.029877
0.0094109997 0.080641001 0.164616
-0.018265 -0.021489 0
0.035360999 0.001569 0.132617
-0.052887 0.0099919997 0.113035
0.048434999 -0.036302 0.080922998
0.036952 -0.046416 0.086110003
0.010667 -0.050271001 0
-0.0095889997 -0.097296998 0.063026004
0.019599 -0.000895 0.14392801
0.0068720002 -0.100032 0.051121
-0.049306002 -0.038796 0.086924002
0.061618999 -0.01293 0
-0.041143 -0.050896998 0.079070002
-0.029772 -0.063983999 0.065416999
0.049981002 0.059858002 0.042098001
0.014671 -0.037758999 0
-0.039333001 -0.027462 0.116042
-0.078543998 -0.0048170001 0.011921
0.0040350002 -0.057057999 0.095450997
0.033842999 -0.036245 0.117636
-0.0099999998 -0.014243 0.196537
-0.079157002 0.019668 0.03033
0.0071020001 0.068357997 0.049481999
0.065233 0.039248999 0.002877
-0.001535 -0.061859999 0.078836001
0.045325 0.026393 0.112764
-0.026063001 -0.005074 0.0099999998
-0.007369 0.078879997 0.159779
0.0098200003 0.010734 0.13578101
0.001404 0.068424001 0.160289
0.0073040002 -0.029168 0
0.003765 -0.098447002 0.04397
0.02235 -0.027626 0.13232701
0.011466 0.062670998 0.083474003
-0.038892999 -0.031445999 0.0099999998
0.0049049999 -0.065917 0.060589999
0.082778998 0.031300999 0.012918
-0.072862998 -0.012559 0.027905
-0.031153999 0.039090998 0.0099999998
0.00122 -0.070283003 0.13616
-0.0099999998 0.0049359999 0.193544
0.0084990002 0.076513998 0.18251599
-0.024049999 0.068301998 0.036687002
0.033558998 -0.038334999 0.0099999998
-0.0045070001 -0.055640001 0.102017
-0.014236 -0.049357001 0.0099999998
0.031807002 0.053114001 0.075438999
0.057381999 0.052126002 0.003242
0.010267 0.050838001 0.114674
0.0026759999 0.068937004 0.161698
0.053266 -0.038155999 0.078139
0.033222001 0.045265 0
0.059558999 -0.0090530002 0.081946
0.020221001 -0.036651 0
0.0050769998 0.089745 0.2
0.023807 0.001372 0.140866
-0.066903003 0.048916001 0.026349001
-0.0048239999 0.050958 0.112301
0.016628001 -0.065880001 0.051732
0.0099999998 -0.067289002 0.198364
0.065095998 -0.024142999 0
0.0039869999 0.075354002 0.19
0.018882999 -0.0080209998 0
0.0087320004 0.034058999 0
0.022600001 -0.030386999 0.113
-0.066368997 -0.0063439999 0
0.037046 -0.064952001 0.0020280001
0.068161003 0.043956999 0.031459998
-0.0057140002 -0.072742999 0.057287
0.04377 -0.032051001 0.0099999998
0.028860001 -0.020938 0.0099999998
-0.0058849999 -0.082943 0.027267
0.0070969998 0.026901999 0.2
-0.043255001 0.040461 0.099206001
-0.0048449999 -0.069274001 0.162625
0.046278998 0.0069920002 0.114071
0.063841 -0.021081001 0.056182001
0.0099999998 0.067102998 0.19557799
-0.040270001 0.022218 0
-7.2000003e-05 -0.087835997 0.016306
0.0040739998 -0.110979 0.101474
0.030246999 -0.066627003 0.058054999
-0.054373 -0.0056090001 0.104605
-0.069927998 -0.025999 0.053707998
-0.060467001 -0.028797001 0.05796
0.052935001 0.02368 0.093791999
-0.028844999 0.013586 0.0099999998
-0.028525 -0.028185001 0
0.0090960003 0.072577 0.171699
-0.0039380002 0.057440002 0.13011
0.0016129999 -0.045421001 0.0099999998
0.0099999998 -0.062337 0.125468
0.045924999 -0.040431 0.092615001
-0.072664998 0.0092320004 0.001144
-0.053236 -0.042473 0.071042001
-0.0063049998 -0.033911001 0.0099999998
-0.0064670001 0.054639999 0.19
-0.048149999 -0.023460001 0.109933
-0.062812001 0.048558 0.037119001
-0.005779 -0.0060459999 0
-0.058157001 0.022074999 0.090526
-0.073912002 -0.021047 0.017340001
-0.070716001 -0.028874001 0.023665
0.0043060002 -0.049982999 0.109621
0.0070259999 0.027037 0.0099999998
-0.025886999 0.049334001 0.108306
-0.057287998 -0.020901 0.093759
0.041175 0.037988 0.100991
0.050547998 0.0059540002 0.120572
0.053996999 -0.054079 0.049796
0.0069129998 0.068464004 0.0099999998
-0.0099999998 -0.078148998 0.167355
-0.03624 0.054668002 0.060663
-0.00137 0.068511002 0.2
-0.056324001 0.050248001 0.050443999
0.059556998 -0.013363 0.078643002
0.063174002 -0.025460999 0
0.068475001 0.055780999 0.011033
0.039145999 0.058141001 0.042947002
-0.0099999998 0.061740998 0.113639
-0.0043700002 -0.041719999 0.113
0.060541 -0.036258999 0.041404001
-0.0068419999 0.074928999 0.0099999998
-0.076563999 -0.0087310001 0.0033150001
0.000971 0.090000004 0.191361
0.041308999 0.060607001 0.001302
-0.0053070001 0.035319 0.2
-0.003728 0.01114 0.132239
0.071200997 0.027848 0.048893999
0.002908 -0.065838002 0.153183
-0.070505999 -0.015903 0.057905
0.011248 -0.013055 0.14691301
-0.065468997 0.037448 0.022681
-0.021509999 0.019554 0.113
0.025591001 -0.036063999 0.12593099
-0.012277 0.076398998 0.014474
0.055838998 0.034775998 0.077358
0.013245 -0.051631 0.11482
-0.012535 -0.080787003 0.029712001
0.010945 -0.001396 0.150014
-0.062272999 -0.0059079998 0.073886
0.058768999 0.012199 0.08258
-0.018443 -0.054172002 0.095527001
-0.069847003 0.041437998 0.031454001
0.00581 0.016478 0.19
-0.081936002 0.004522 0.0059059998
0.005529 -0.049766 0.104155
0.0068199998 -0.070831001 0.166903
0.03067 0.074937001 0.0048790001
0.027045 0.05638 0.088858001
0.004828 -0.071891002 0.16981301
-0.073740996 -0.012639 0.050317999
-0.065268002 0.04761 0.032584999
0.040274002 0.0093510002 0.0099999998
-0.070191003 0.0095800003 0.040504999
0.046321999 0.060421001 0.0028349999
-0.003179 0.068273999 0.159877
0.067096002 -0.037312999 0.017653
-0.039588999 -0.043513998 0.0099999998
0.047079001 0.026792999 0
-0.064764999 0.042266998 0.042714
-0.073988996 -0.000413 0.056726001
-0.032047 -0.053723998 0.072917998
-0.046723999 -0.024397001 0.117272
0.070513003 0.0098040001 0.0099999998
-0.030539 0.078826003 0.02496
-0.0079840003 -0.063533999 0.067423001
-0.0022529999 -0.064093001 0.119151
-0.067653 0.038323998 0.013621
0.0099999998 0.057376001 0.123105
0.051268999 -0.017028 0.107817
0.073537 -0.023980999 0.016534001
0.073540002 -0.044057 0.017918
0.0032579999 0.088197 0.19
-0.0091779996 -0.084174 0.031091001
-0.053112999 0.019301999 0.106939
0.021652 -0.054875001 0.090351
0.035507999 -0.049104001 0.080468997
0.030569 0.040561002 0.120523
-0.020954 0.053622998 0.0099999998
-0.010198 -0.082992002 0.024605
0.071741998 0.032522 0.012925
0.010199 -0.065851003 0.074886002
-0.067612 0.041480999 0.036940999
-0.062857002 -0.0046899999 0.072566003
0.007061 -0.07491 0.032938998
0.001829 0.051902 0.2
-0.001534 -0.0093630003 0.130527
-0.025137 0.007189 0.0099999998
-0.0066129998 0.050590999 0.11843
-0.0099999998 0.077689998 0.179472
0.062763996 -0.006329 0.071667999
0.0065049999 -0.081257001 0.046487998
-0.071408004 0.035172001 0.0045489999
0.060959 -0.000424 0.083166003
-0.040194001 0.04685 0.0099999998
-0.061336 -0.034017999 0.043703001
0.015701 -0.0068430002 0
-0.051837999 0.045187999 0.070006996
0.066348001 -0.0056400001 0.076086998
0.031438001 0.069355004 0.0023459999
0.051375002 -0.0064059999 0.119562
-0.0086970003 0.085929997 0.0086629996
0.0097770002 0.033388 0
-0.070819996 0.003061 0
-0.023986001 -0.064285003 0.071433999
0.0085190004 0.057041999 0.092070997
0.033647999 0.055808999 0.079308003
-0.055027999 0.0097869998 0.106873
-0.0099999998 0.010872 0.197414
-0.054747 0.034400001 0.064425997
-0.001294 -0.075626001 0.041731
0.064365998 0.0096410001 0.079566002
-0.059592001 0.048117001 0.018583
0.0067639998 -0.04589 0.2
-0.043938 -0.038364001 0.091127999
0.004954 -0.0081089996 0.2
0.00068200001 -0.049153998 0
-0.030375 0.052513 0.080536999
-0.042838998 0.020190001 0.0099999998
0.006271 0.01435 0.113
-0.064580999 -0.023465 0.051498
-0.0032530001 0.080553003 0.19
-0.0068959999 -0.050845001 0.19
-0.017318999 0.049858999 0.113038
-0.028233999 0.053688999 0
-0.0099999998 -0.060830001 0.132816
-0.026901999 0.067295998 0.060901001
-0.055360999 -0.0087320004 0
0.0055140001 -0.070315003 0.16548499
0.0099999998 -0.083314002 0.173924
0.081588 0.0065850001 0.030833
0.011931 0.011589 0.149757
-0.059916999 0.058871999 0.027178001
-0.0056429999 0.068520002 0.069716997
-0.083067998 0.004681 0.027602
-0.026895 0.064232998 0.049796
0.050335001 0.044953 0.055792999
-0.060419001 -0.00077699998 0.096317999
-0.042964 0.060586002 0.026598999
0.005868 0.0051000002 0.2
0.018515 0.062057 0.081162997
-0.076467 -0.018572001 0.0043779998
-0.003329 -0.122288 0.085028999
0.037521999 0.068951003 0.011126
-0.052753001 -0.01708 0
-0.0099999998 0.053633999 0.199101
-0.001532 0.021257 0
-0.060120001 -0.051275 0.039297
0.001296 0.0045380001 0.2
-0.033247001 -0.056651 0.060718998
-0.010207 0.045529 0.0099999998
0.025932999 -0.067470998 0.038447998
-0.01633 0.030222001 0.13318799
-0.017986 0.037055999 0.113
0.016625 0.0251 0.113
-0.033093002 0.036238998 0.116948
0.00041899999 0.014647 0.2
-0.043363001 0.021767 0.12307
0.009149 0.052251998 0.0099999998
0.028585 0.0055720001 0
0.020951999 0.058263998 0.0099999998
0.069456004 -0.028222 0.029030999
-0.0078499997 -0.090000004 0.193058
-0.0063029998 0.063106 0.2
-0.027480001 0.0090530002 0
-0.0023709999 0.00095000002 0.12792499
0.0099999998 -0.0078220004 0.191201
0.0085509997 -0.114081 0.078812003
-0.025579 -0.081147 0.021044999
0.0075699999 0.070041001 0.13549399
-0.055419002 -0.021583 0.098844998
0.0037799999 -0.013684 0.147728
0.003757 -0.056688 0.2
0.045676 0.0074300002 0
-0.011645 -0.052836999 0
-0.0082459999 -0.018069001 0.143777
-0.074635997 -0.029769 0.0046040001
0.064567998 0.014496 0.058433998
0.012461 -0.055964999 0.102565
0.027989 0.051104002 0.100411
-0.010183 0.033998001 0
0.00077799999 -0.046629 0.0099999998
-0.0099999998 -0.011676 0.197978
0.0099999998 0.071387 0.143188
0.0042320001 -0.029929999 0
-0.0027999999 0.0067210002 0
-0.006112 0.012629 0
-0.00032299999 -0.089805998 0.189796
0.086087003 0.007553 0.017070999
-0.002909 0.0089029996 0.19
0.002567 0.075203001 0.149675
-0.0084910002 0.031381998 0.2
-0.049081001 -0.027422 0.106383
