# .PCD v0.7 - Point Cloud Data file format
VERSION 0.7
FIELDS x y z
SIZE 4 4 4
TYPE F F F
COUNT 1 1 1
WIDTH 1668
HEIGHT 1
VIEWPOINT 0 0 0 1 0 0 0
POINTS 1668
DATA ascii
-45.368027 -1.02827 125.57336
56.836349 25.075222 77.978134
79.70063 -29.948759 22.737217
-51.174881 57.676144 3.076427
-8.3878517 -2.344852 190
52.282448 8.0669355 110.78679
-10 -67.581955 151.67519
-33.399361 57.158279 76.364777
-41.487457 -33.779182 109.17086
-1.9757971 -11.74569 132.37849
-26.665173 51.944717 100.51919
-70.680656 -12.997537 59.086369
45.986286 -45.616409 68.570419
54.781998 -35.541412 61.817566
2.4764149 -16.159428 190
14.346952 75.721069 43.513798
-74.669441 30.223608 37.334984
39.525215 -68.211937 4.4094481
-1.996109 -49.473911 200
-19.747147 60.609123 69.681519
-19.636539 -17.700018 113
37.239403 -25.242977 125.36242
-5.397799 -2.585757 128.83185
-15.208588 59.647583 90.15995
-4.2898941 77.707497 43.554962
-12.79633 54.361771 99.130432
-7.6397419 55.001797 190
46.946705 -24.685726 0
12.551085 -34.620903 112.99999
-3.7664959 -73.560448 145.16272
63.361153 -29.238243 47.526978
64.039124 -33.509499 35.970268
-29.251526 -11.201185 135.60104
-57.458168 41.29789 40.475479
-36.864788 -57.234001 50.901154
42.983234 30.243523 116.85843
-63.024761 5.376101 9.999999
-49.386326 -58.763878 45.808022
-19.232927 58.735363 77.308357
8.7473965 1.831715 200
-17.485189 -51.279228 113.3788
54.225151 60.146175 34.330379
-65.375168 -47.753647 32.080204
1.545216 -59.772945 190
4.0120878 -90.802223 192.53499
-11.232285 -81.421959 28.608519
75.222458 -2.7589951 26.321484
-45.040848 65.266624 36.857738
-8.5108166 75.40802 200.00002
22.872208 29.893444 130.74915
-3.7303381 -79.413689 4.3746829
-56.179665 -29.586872 0
41.89135 12.283428 10
54.655548 26.98592 93.245056
-48.638844 -47.233276 74.564034
-52.116879 -16.457851 10
5.0659289 51.949303 118.65955
-10 53.969936 104.44242
50.106503 23.699041 110.01891
-58.873474 -62.826397 19.941645
30.716724 64.342407 41.083824
-64.96254 38.092297 49.15966
-10 -66.01088 132.88727
10 -83.42778 177.4491
-3.9996459 17.627823 200
-73.495949 -2.7421391 0.88079602
28.23373 -62.245876 53.372429
-6.875545 -72.612083 142.55713
-1.204335 -47.5448 10
-1.5045381 -54.528248 122.11049
46.257404 60.197754 47.441357
-1.153841 70.078835 164.83511
-0.40532401 45.083805 113
-26.116354 82.231934 17.548151
-17.797768 25.840839 113
-33.862576 28.674488 10
-9.6890945 84.082451 21.704828
-4.2990851 -82.174835 190
-8.2388821 90.235321 195.84427
-3.8713 -50.680687 103.82236
-1.858966 66.204498 200
32.4048 -59.79892 10
3.3975999 -73.445343 174.08521
13.03668 64.511436 77.159912
8.3127375 -74.271614 147.11714
-12.875329 69.364143 63.01944
-31.922684 82.497101 9.3410769
16.36981 -34.116508 130.82253
-22.073038 -26.31349 0
-10 86.930695 187.62518
-4.021791 55.005417 110.30418
-10 64.836075 199.69957
11.276572 7.8974762 10
32.844482 38.065598 121.80025
10 -82.45137 197.34674
1.321304 86.133881 199.99998
45.261421 73.354698 16.378136
-0.204945 -90 194.25046
-19.80216 85.26474 12.336052
4.4343839 64.334839 149.05411
-5.8087831 72.205994 199.99998
-30.98151 -68.438232 9.999999
-24.160007 -23.941751 133.77658
-8.8784542 77.884407 11.349225
-2.658587 -58.403305 200
0.185615 9.4130716 0
24.037991 -50.109547 109.44815
-40.348961 30.160328 119.86501
-2.7979701 60.330734 108.81456
3.2191801 6.5860782 113
-6.8373961 68.441467 69.248924
-6.8955498 79.425728 190.51541
54.661617 52.607822 24.898767
31.828388 -45.011292 101.90575
68.445114 -35.434799 10
-13.744213 -40.747406 0
17.647772 13.059192 142.09108
38.940117 12.505884 128.52258
73.717415 8.5804129 52.755821
3.523526 -51.643021 10
10 22.311142 195.17451
21.815878 21.996923 135.9382
30.89603 42.346916 10
19.802891 -71.571976 27.325987
-2.6479831 -111.70807 103.50104
-39.546799 30.250267 118.85845
9.999999 61.694317 113.83562
54.833145 48.661964 32.964481
2.056541 73.219711 190
-8.8315516 12.438852 0
-1.285007 80.886459 165.29073
67.774185 -48.084114 25.565334
12.882026 -34.312592 113
-17.799673 -64.384705 56.604263
10 6.5123138 197.4603
-9.9460077 -71.477646 190
-56.745186 10.477278 101.43427
-5.8056312 72.068321 170.30186
1.284914 -78.032402 157.44989
-25.444344 54.694729 95.709099
11.815317 -71.036285 35.525826
-27.993917 -67.384109 59.917282
47.834862 44.164482 81.66246
-4.1776371 -135.3024 108.02512
76.297241 1.5870349 49.268761
63.109161 -7.39606 84.564392
6.762043 58.762276 104.50518
10.000001 85.4375 199.78287
9.5962334 11.311398 136.18558
13.10875 -48.443764 121.67504
-1.797286 -74.714127 39.881477
-5.3170719 -88.971146 187.50409
-57.146637 -40.07869 44.160458
-0.46816999 -72.177917 200
-8.7322845 33.088821 190
76.180984 1.444082 23.631386
-29.071697 16.875307 133.6619
-42.8866 -60.321892 27.631807
33.219845 -21.839058 129.15903
67.786667 -27.301434 36.179123
50.548775 -0.019641999 118.6843
-2.726984 -52.668953 113.39467
-71.708466 8.6572866 58.603889
10 -87.813538 191.40614
23.716541 -50.93224 100.26718
16.049089 -69.959625 59.420883
-18.711113 -82.002731 22.541229
53.194103 -24.516134 91.118057
-41.287003 40.59576 103.8752
24.274229 68.229813 59.695869
-80.419044 -6.3619838 34.392101
-0.022545001 64.339165 119.82771
45.399426 -23.781347 121.02928
-4.2828431 -62.085991 75.853737
10 82.046883 198.42703
-6.1811652 78.849129 4.3306479
-10.000001 -90.776123 194.12209
14.31343 -6.3048048 152.46576
28.054886 -10.686171 10
-46.630421 -59.755692 21.299255
-16.226965 -66.076721 10
1.684562 -24.922155 140.0285
-10 81.513901 177.94138
14.804668 -72.733658 26.679592
28.320902 63.495636 69.043686
47.960804 -61.504265 12.669202
-57.137531 -42.149517 0
72.272934 32.544746 11.138171
4.282568 71.267899 62.448746
-84.67804 -5.7345619 22.265121
-10 56.860611 120.18925
10 -82.707397 191.04214
57.91106 31.620823 60.150909
-30.486012 -51.605682 83.263351
-59.062866 -20.792427 74.847038
-6.023469 62.918167 85.925514
-20.16107 -6.1943378 0
-12.412658 68.719528 65.180275
23.057714 78.543533 30.152092
44.185921 45.371006 87.753868
11.37002 -12.4418 10
0.109003 76.438751 182.30881
-37.741875 -52.682922 63.874897
-73.666138 10.7146 51.661007
34.899696 16.506132 10
10.771876 -30.802643 0
9.0083036 -14.93026 200
3.102356 66.615967 126.08298
56.55619 0.26499501 100.28143
1.391616 40.471584 129.00595
-49.762329 -64.613365 5.9798121
-6.1430702 86.823097 15.734627
-48.840004 -66.037514 28.628025
42.656998 -33.237473 112.69492
22.094118 -3.3970809 0
73.247658 -41.641544 7.5339398
-0.63867003 88.897217 187.30098
-34.008186 71.285675 11.168961
-27.151628 25.219164 113
35.743446 -51.814644 85.758148
17.983994 -26.836412 134.5634
76.758934 6.6923528 44.935646
-66.21347 -30.167765 10
9.2203827 -59.292175 105.96107
39.68502 65.099426 18.999212
-3.43733 -57.413765 130.03816
3.69891 50.06081 200
-25.696608 -82.995796 15.552401
62.320599 -6.5020099 87.39917
-85.170845 -0.21234 24.041607
-10 -59.086418 127.63688
-8.4608612 -74.714661 2.227211
-46.009937 53.154121 65.368347
-19.733412 -35.490723 0
3.8209181 -74.792877 200
-44.519676 -8.5875349 113
-50.647797 -13.903707 10
-11.123136 36.977783 130.11456
7.7867169 -16.82468 200
-78.607079 29.079487 26.452147
44.451469 50.238373 57.204269
23.547417 53.363403 102.17172
43.368057 -31.215996 108.62135
-49.590202 -34.178165 81.785988
-4.7093058 -79.428528 190.5231
2.550144 55.509533 109.6841
65.209518 25.286625 0
-87.736168 9.2641029 11.23522
46.00655 -56.352776 57.419704
20.402903 28.141235 132.80136
-30.542542 65.549522 0.21209601
-16.824356 -13.588654 113
41.904678 38.392605 97.719246
26.548481 -35.100441 126.1265
-63.315495 -20.158602 0
9.5091667 -55.725613 104.98987
9.6936741 66.591881 155.25479
51.300335 54.021343 10
-1.255847 -86.329498 180.24619
-74.418556 41.587116 19.837822
1.36462 -87.461761 196.85271
46.59473 9.1496811 10
43.737419 50.306683 76.225266
-25.349436 77.753647 31.131931
-4.1105018 88.068863 200.00002
-60.543301 3.684484 82.267372
58.431595 -33.707924 53.884525
88.102699 1.669522 9.1055908
-26.57365 54.817398 10
2.2046239 6.595006 129.22322
64.793518 -56.186722 19.514193
-6.0494571 -50.475357 190
-38.376438 -68.439743 10.930552
10 -41.410069 192.75085
-3.2977009 -62.921661 73.384666
33.160271 -2.448108 10
10 -41.855698 198.21487
73.323921 10.631772 27.605011
20.145554 -69.259476 59.08448
0.63109499 62.612427 115.08351
9.1644363 79.310326 160.96034
10 -62.560619 139.09473
-35.377861 -10.956042 10
46.378582 -44.846352 68.970383
-51.227364 15.967087 108.79386
-48.763523 65.646912 29.726429
-23.158689 23.369659 10.000001
-55.315662 30.386307 85.9534
4.6311831 -0.227299 200
1.7849391 -76.760941 47.79311
4.6216888 78.664177 199.99998
55.28577 -41.184422 68.085548
12.717949 5.0586591 134.47464
-18.071981 -71.501709 10
23.628572 69.895851 55.185547
-57.354076 12.565643 87.758331
30.643724 -8.6652479 134.96938
-1.18578 -58.237232 103.06265
-1.954455 -74.893768 148.82599
-0.150876 -64.808479 150.35495
-26.274834 51.061031 103.36529
10 63.034561 134.39551
-50.215881 33.079437 0
44.282806 56.238861 0.149279
75.204582 3.9100921 25.506744
-47.557873 2.4861729 114.68385
-20.519554 -82.727409 19.360329
-5.3968611 60.975601 190
-6.6731429 73.774643 174.98996
48.809547 -12.933723 120.01161
-18.938702 -60.72847 69.841583
4.6869259 -30.457241 113
72.587097 29.949535 15.618143
54.18119 18.28966 104.397
-1.143613 10.294325 158.88419
73.24408 -38.753872 6.5974979
6.9823909 89.015198 189.99998
11.476157 -35.660484 0
68.444267 50.917305 19.191376
-7.1021581 16.660791 10
25.693607 -51.530888 93.985886
26.957308 14.265274 10
59.50045 37.628601 0
-73.808601 18.378229 2.83671
-5.5790539 63.251156 70.361443
30.373508 12.413909 113
6.6985078 -74.737259 200
-43.326595 -72.34687 22.099274
44.967148 -33.09737 107.18293
52.244408 24.612619 94.014603
-7.8637428 55.829067 97.254059
-6.473103 -50.229404 103.98659
79.46804 16.559301 5.8639278
5.0497618 70.380569 43.250801
47.862381 -72.817848 13.391394
-3.295171 -9.9873095 158.68571
4.6853299 -85.424454 56.88464
-50.360733 4.7569132 119.89111
13.603753 -17.115261 10
10 -56.087658 117.58054
-16.557007 -27.425791 134.78302
-78.384048 0.216693 16.070654
46.958069 -19.582333 10
-3.9934869 58.102905 10
4.378005 11.246994 0
-64.402084 17.656284 74.785286
70.640022 23.410927 53.129639
-3.22613 -4.4873381 153.99287
-12.142999 -84.773392 18.246262
-9.5496321 -64.731979 190
5.0466871 -101.64321 50.25993
-17.871294 53.325241 10
70.787544 15.926028 57.064137
83.642387 3.635879 26.527567
7.4320011 85.323204 177.48059
61.297264 7.5407429 76.396729
61.399384 38.037865 58.110806
46.392826 -41.57373 0
-10.000001 -73.286217 173.15146
-65.556793 -27.978458 64.487076
12.124619 65.066345 58.330269
77.477196 -19.712261 5.0846772
-1.09392 -90 192.96146
69.288513 -7.5904899 45.515175
-64.762306 -6.9500461 79.97541
-57.650322 16.702787 10
40.244194 23.767227 10
-15.082757 86.407211 11.738472
-10 -11.856606 192.55898
-52.102844 21.579363 0
-8.953083 83.77327 190.00002
-31.709686 -22.585863 129.76898
67.987411 8.2891665 10
-26.64291 -50.87915 103.20599
-2.754483 10.508938 200
-7.4904189 85.573349 178.16783
-61.168636 4.6085911 91.883018
8.2216444 83.285995 171.88412
52.469563 -67.600883 8.3033676
-70.570572 -47.208122 8.0389099
-4.9426098 -65.571342 78.773529
-60.927757 62.939106 16.247955
-46.555119 -2.1520231 10
8.3718634 -7.7378702 113.00001
-5.8313241 -38.774841 190
-49.004276 -8.1896286 0
18.240618 -83.171326 19.387875
-3.696182 75.043991 149.23871
38.826118 75.285645 7.6098862
-55.507954 -62.611519 6.8698449
-80.102257 31.202059 7.8906798
1.881148 -48.491116 123.23045
-52.914135 -2.3763821 112.71751
5.0716782 -77.922676 157.14842
-53.350414 -47.670036 39.984734
-13.932951 10.965539 145.17575
52.877472 41.149227 55.788849
-52.682064 27.805923 85.600914
0.84105998 -77.723648 185.83899
52.984833 -47.720352 10
2.596029 -53.601433 109.89616
10 48.727577 105.0789
-17.716789 -46.762669 0
9.859127 77.211517 190.00002
-75.851944 -15.176132 10
26.560484 -46.353748 109.03046
19.954201 -60.326622 70.612923
-66.700462 -11.578888 52.442101
-35.843269 41.909111 103.27845
-44.718895 -60.112293 24.311657
44.464542 26.294495 115.79356
40.901443 41.645145 10
-25.122026 71.345505 10
40.267769 24.699188 123.75484
-8.4315014 -77.993195 200
-9.2178574 -81.89785 197.3085
-28.487474 74.217018 10.449691
-31.454296 57.009861 79.965775
3.3903179 52.920406 116.78864
36.114594 -72.336121 5.3033528
13.100861 -3.103832 134.14005
-3.9409599 -23.566071 190
-9.7995434 -6.015255 113
17.706238 -17.319384 140.33875
21.60557 65.671242 0
7.162035 -53.318314 200
48.011131 13.962807 119.06166
-4.866293 16.916245 200
-69.923309 -41.632145 30.941601
-26.048826 -70.957802 50.658333
31.724171 48.413521 91.001251
25.022921 -72.12606 21.179882
-28.237419 -42.937466 0
-53.785908 -23.599627 0
52.124855 -42.903599 54.415703
8.7817783 -82.368141 189.99998
-3.446759 67.883087 129.56465
-15.858341 -50.984612 115.19225
-61.762589 -45.991756 16.128922
-12.201628 11.521678 140.63564
71.882416 -9.7518501 33.844284
58.776012 -35.507717 48.822628
-43.66074 -46.018051 0
43.457043 -47.077034 69.722534
64.818733 -28.185904 65.977768
-26.719707 4.7843399 138.31076
10.000001 80.434021 164.82991
6.8848038 -10.778141 190
51.244934 50.700474 40.248413
3.2342131 -0.82072097 190
65.076851 -6.9456568 62.265759
-32.861317 -42.192974 10
74.325874 18.190647 17.934683
-48.403625 -32.23658 100.06755
10 -9.5189896 196.08551
-16.509575 -60.698143 86.319244
-63.846806 50.654388 5.8972139
70.615555 13.568962 35.803398
-10 -73.016541 158.14812
-2.932724 -77.865784 189.99998
-7.4013128 58.097816 0
-21.18931 79.498306 28.441586
53.402256 50.79422 32.984585
9.7197361 -81.309875 29.819841
-29.307606 -72.604195 16.044971
31.580044 -2.463505 10
-5.2201438 73.28035 173.63115
9.5664711 -117.96288 98.989845
-27.119349 79.487206 25.014114
26.430607 19.020985 10
-21.99876 65.813408 47.866222
-78.69899 1.470032 42.291916
15.888493 53.135029 10
-3.739881 -90.145241 29.576254
10 66.337479 136.1974
-79.489037 29.254515 23.762957
5.3140721 -14.204531 147.14079
29.265339 63.968746 66.297882
-40.743423 -47.330463 88.601227
-74.10675 0.75014597 10.000001
-20.774473 21.866568 136.43658
-23.461796 -60.000328 69.179428
60.47393 -27.372955 61.052219
7.6871748 52.572369 109.95935
24.056297 54.21595 0
7.6820698 78.283531 39.886032
-17.54697 40.572929 113
-3.4908991 67.639229 128.89436
9.0815468 82.712898 170.30884
24.606541 -47.825607 108.4864
6.8377099 84.33757 200
-74.784851 -23.547527 12.050568
33.921295 73.178238 35.659744
-58.383003 44.284653 1.188568
72.268608 24.741501 2.679986
74.559685 19.332651 16.155516
30.950785 -69.722618 49.188866
2.2336869 77.934662 16.256609
-63.764565 -0.92117798 86.419815
-54.968296 -31.909473 69.148682
-4.6992822 53.271393 200
-57.472832 -41.08363 40.896019
-39.001465 55.779175 10
-81.747849 33.073616 14.908749
-16.606144 -54.755692 103.69408
18.452005 76.181992 4.2013168
49.594475 55.878166 10
-52.470062 -7.8637528 10
-61.941914 61.780563 8.575839
26.316509 71.754501 48.165165
74.974304 -13.224885 19.244326
85.770927 6.7970872 18.43935
-5.1824641 66.603813 57.725845
-14.912561 55.726521 92.238266
-0.110142 83.49556 172.45918
-57.340668 -65.280479 16.385838
-10.709306 -3.829983 158.00378
-73.844193 -47.604725 11.267242
1.1851979 -68.817024 71.445206
-0.92488497 -109.562 100.70725
-28.643761 60.538315 58.063187
-64.371719 21.406712 72.686066
7.6833801 -76.345001 32.110199
4.2193198 67.402405 199.99998
28.518478 16.426489 134.17651
67.551941 56.386555 12.322624
-54.827446 48.479774 33.38139
6.4425831 -86.914215 8.9689827
-0.55972701 -66.365692 200
0.47990999 65.518242 81.533165
-10 -55.6418 195.82928
4.0719562 -90.81636 66.552467
8.7600622 52.466827 114.98605
7.9465542 14.321777 146.15802
-58.332447 26.94252 84.173599
-57.99509 28.315094 82.731857
0.68170702 -62.677628 115.26251
-71.400177 20.618996 52.528866
-5.13833 75.734268 180.37404
-76.241425 9.5107517 44.809227
11.59032 20.086775 0
-7.5207 -85.258163 19.521259
37.837868 12.884492 129.25328
2.7121091 67.508667 56.130005
23.744877 35.410805 127.06926
-49.064957 -35.425568 93.124146
57.383781 -13.83572 86.668594
-61.856956 -64.474449 10.885967
-12.405565 78.523857 36.425034
0.21005701 52.72942 115.0936
-2.706624 -74.353836 33.2598
-48.824577 73.03376 11.25569
-9.3252373 41.63826 10
-5.9612279 34.0359 0
-10 -66.979149 145.71907
-30.2509 81.80275 16.394684
-70.921829 25.284599 10
-3.190603 49.866413 10
66.946602 -9.4577417 53.120571
1.548602 60.771034 139.26218
64.502121 41.151558 45.221336
49.549358 18.213324 113.54585
-69.178391 -4.9926372 47.934605
-57.591026 -48.089561 50.879333
57.794846 -1.399379 10
-23.270269 -49.921078 104.55138
-73.737312 -2.568778 32.199646
-72.143555 2.1736779 0.043387
2.855134 84.920731 176.3756
59.533001 23.118734 10
24.63262 33.889526 10
-27.59066 31.373409 0
7.9673309 -81.066071 165.78424
-45.13369 61.840019 17.751606
-6.9116292 -77.180038 43.572472
3.190475 -68.428825 131.06375
25.948135 -18.239353 0
51.56678 16.833733 0
3.615211 -39.220642 113
-68.039169 -22.501842 61.289207
-30.081388 64.900291 40.647491
47.789993 -57.006813 27.758532
-72.333107 -30.976322 42.654762
-16.91452 -39.362045 10
45.371647 14.820725 123.61867
2.8734541 75.613373 180.04187
-31.935112 -40.082134 117.80086
18.334322 36.982658 128.30183
10 1.509514 190.68887
11.75667 35.693855 113
57.046654 46.279232 30.93119
-50.696262 -7.2721672 117.51908
-50.904007 -28.577982 99.928856
33.679459 -3.1448779 0
-60.740135 48.958164 12.988903
-1.692456 0.58884197 162.20529
7.943069 -42.271183 200
-9.0695963 10.081893 134.37904
66.978691 -23.641815 10
-42.847729 15.965783 125.25247
17.798128 69.528717 36.751389
4.2996311 -59.660664 106.97348
-9.8055077 69.046082 161.99825
4.363245 -18.265293 113
37.992744 -79.951523 12.051086
6.1225672 -80.28891 45.57579
30.251369 23.800303 0
33.341698 4.0075889 113
20.569122 -47.803417 117.38607
47.75148 65.213669 5.6197281
5.0531678 -53.583702 119.51536
64.796143 -14.085861 0
59.640915 13.887682 90.950241
3.2338891 -27.023293 200
-10 -75.390259 155.79291
-3.5967491 -90 190.02931
2.778353 58.223122 103.02386
10 -70.98645 165.18932
10 -80.180695 191.07922
9.999999 78.229645 185.74065
-7.410768 17.022312 200
45.253105 -29.833141 105.47672
-0.153331 -55.901928 102.89239
-70.13382 19.144081 33.382591
-73.600052 14.960211 49.377644
28.80098 -4.0077152 10
0.57751 -33.690571 113
10 -78.13784 171.56873
-26.324678 -0.51231098 0
6.7020988 19.697041 113
28.25227 22.511211 131.88463
0.93809497 -2.9207311 200
-40.190018 -46.878532 90.644608
-50.994312 5.0064902 119.99999
48.244179 49.47308 0
34.431541 64.916 55.358082
-85.574265 -1.1392699 22.317429
10 -86.455338 181.24402
9.4340744 91.088921 193.32269
-19.797131 53.990013 95.190567
-14.533967 77.936569 36.90588
14.657747 -71.236351 32.571449
-9.7442265 89.052277 196.27383
-4.513195 -79.856239 30.082996
0.43157399 -84.664536 57.84803
9.2356644 10.710293 9.999999
-30.309654 -67.967079 54.619774
-77.267288 -36.173069 7.7111011
-18.014952 36.968735 0
-10 -89.2883 198.81911
61.599049 -7.095613 75.573723
25.663464 -78.250771 6.203156
66.456482 36.269375 10
11.285213 2.4908421 149.61758
7.4122591 -25.559071 0
10 -72.812057 154.28242
12.159033 28.164608 136.10995
-68.016365 11.714098 67.650482
10.154234 -59.061302 83.020309
-16.096884 -49.859558 113.97347
60.090843 24.33515 68.159576
13.767855 -19.362532 140.77107
46.152637 -60.727074 10
62.967197 -63.100269 12.458456
-12.595997 -4.145782 133.88448
0.81165701 -53.703659 119.84492
23.311026 -39.881947 124.54707
8.9431467 -38.294529 190
-10 -67.274757 198.75475
-64.791847 -35.957569 53.13121
10 -66.07489 144.07602
43.52211 -64.318146 13.166492
-79.776756 -8.1278048 35.245827
-62.001816 -36.536129 0.43353
-2.2859471 20.231014 200
-3.9055901 -109.1307 62.548664
-53.774826 -51.595127 54.544426
9.0746298 23.680729 190
-34.018978 45.846733 103.46427
-13.379852 -60.617123 74.539024
-6.4945798 -60.751747 139.20918
-75.910797 -37.427723 23.038231
62.695282 -9.579155 84.504669
-40.994141 45.525486 80.183983
28.98258 46.683952 102.65451
8.6797256 74.811028 49.489944
-79.448105 9.4658699 35.429146
16.803566 -56.349419 10
-27.097673 6.549778 137.79193
-9.0880432 -89.17205 188.05608
44.097359 -15.864325 0
-48.054726 -57.705521 50.652481
50.892803 12.534233 117.40108
-21.08017 39.620293 125.60405
52.299084 56.820919 10.000001
-13.769834 69.654892 61.644669
57.161041 -26.627954 73.52095
-1.679059 15.319918 152.79941
-29.602695 -9.8296318 10
-41.241383 44.60268 82.662888
56.861156 -39.068584 0
-54.549969 48.653313 57.504955
52.23764 -21.102715 100.9518
-42.139755 48.736523 67.172615
-2.2181699 51.75703 103.43062
-17.235518 14.08666 141.92563
49.722168 51.169479 42.634209
59.31443 -32.042137 73.258102
-37.148106 -41.127693 102.98244
69.557289 41.837811 5.8097391
-20.817904 46.935848 121.29691
63.030518 1.1231641 0
19.022058 -76.084473 10.508799
12.207439 66.441086 71.983437
-7.371129 -98.815826 75.168335
62.14043 -10.127359 10
10 83.449524 178.5332
3.885679 -4.242259 153.87488
-7.103282 66.845169 155.95068
6.6996398 90.848801 192.66295
84.286926 -6.1888142 23.147358
-75.3759 0.494003 1.699525
-15.319071 23.989252 113
60.217274 39.976044 34.337597
43.759331 -61.877571 20.633526
-4.6816378 68.947456 132.48901
-10 63.347435 140.2083
19.458456 19.824306 10
3.4072311 66.465958 190
76.784866 -15.691211 10.362732
40.851948 44.527351 83.760773
44.16544 48.121151 64.757278
-21.176844 -73.644279 18.272816
10 24.21418 196.70209
24.627871 74.569832 40.892136
-35.475098 -3.7022669 113
10 -20.191475 197.79247
-10 11.33918 191.97357
56.713551 -57.403973 37.014843
23.930758 -76.526619 5.0209818
-4.1131902 -94.413956 37.169907
62.487297 17.11898 64.450142
10 -86.921997 189.6564
6.9025669 54.253445 104.07338
-31.117588 61.788734 68.641342
1.07953 56.707619 107.02777
12.288758 -1.664379 132.87988
3.0798631 51.448883 113.64984
-41.721355 0.93642402 128.18112
47.429222 23.549412 116.92526
28.643284 73.822876 40.740334
-5.453516 80.885048 165.28685
-47.274086 -38.754745 79.358536
-15.074701 61.438419 84.984947
-54.184013 -53.96381 2.2874739
0.80697203 -14.809563 10
-1.914482 -77.944954 186.44791
-49.809036 60.54422 40.678371
23.862921 -47.711273 10
60.780464 -37.263046 38.426266
33.533993 -25.031929 0
-71.536674 47.55468 17.088623
69.867065 25.892345 53.949135
9.999999 -60.486008 132.2681
68.560707 -4.444489 0
-57.463623 -1.462467 95.859726
1.090451 -10.170494 200
61.274788 -46.021172 3.15153
-75.382317 40.081017 19.943722
3.5246639 1.490675 155.27304
12.582628 -37.771294 113
-12.290802 -2.684103 132.88936
54.271732 19.487032 103.43278
40.963982 68.300568 4.9180918
34.617111 55.702393 77.961761
-21.210854 68.984772 36.230755
-4.2937031 -13.221999 112.99999
-38.583038 53.740585 10
5.185184 69.351913 133.5999
-69.687088 -22.223072 56.617966
79.993568 -21.950584 26.544621
30.684618 41.79895 119.07053
6.9336739 -48.616234 105.86723
30.490322 -53.269382 77.810318
0.425423 61.472214 141.18904
-51.102364 47.313808 68.304047
73.330505 16.954905 22.725174
-5.4287052 -47.819862 123.20597
-10 -66.510941 140.9227
-33.42709 66.800621 27.114769
77.338593 15.818437 37.910492
7.767694 -74.221603 51.75106
-1.69259 -117.78691 114.54189
-66.097755 29.79929 60.116344
24.270538 35.598606 10
-17.170872 -68.849945 62.021427
40.163929 59.315979 36.875858
11.130951 -67.161598 51.006172
3.0914199 36.270916 131.7543
-64.213974 42.09314 44.373322
-17.568829 25.275236 0
-7.3062401 -45.634865 0
-59.969677 1.485902 86.169273
-7.7249641 58.933197 85.379791
10 -76.68515 196.41373
-1.9057831 77.020401 183.90683
69.325623 -37.518688 39.262829
-21.089935 48.936642 112.53946
65.643265 -58.394989 13.731822
-7.3340859 19.949429 200
-0.828188 91.012436 193.11157
10 -25.232105 191.12079
16.32464 45.122738 123.58292
-4.9072709 75.752121 151.1848
31.774948 -57.2813 78.757965
-36.211357 -24.338196 0
-8.2260809 -58.439823 10
-5.9322419 44.665382 125.37924
2.152972 67.595886 190
-2.3291459 12.351308 157.06691
51.076347 -57.208191 2.8178451
-81.5895 22.898075 21.310394
-17.508085 25.523602 135.54712
12.433576 59.865562 78.166275
-31.976234 -73.252441 38.707138
-10 -57.815189 105.55147
5.5695591 83.743439 199.99998
36.629501 78.210571 18.645592
7.2341352 72.558456 142.41022
26.297329 -65.417725 46.093262
-9.0771723 -73.982124 26.258108
-52.92741 42.50795 71.75103
-10.000001 -71.750671 199.98784
20.780926 71.895737 25.325548
-2.0966029 58.417404 103.55769
29.432875 -71.034134 21.995136
39.859379 -63.845791 22.71999
21.144627 54.531105 101.70477
-10.578915 -6.5160742 157.1508
3.674093 -75.398026 150.21141
10 58.330856 114.42529
15.300683 14.253626 143.02547
57.152206 -54.887413 40.675224
-40.013599 35.816666 109.53879
8.9595642 -66.756302 72.953865
-11.414249 12.680973 148.23117
-54.867451 18.630844 10
-76.22686 -35.906799 24.779451
9.9848804 -112.00384 85.545418
7.268816 -66.491135 125.74001
55.078362 -26.078485 10
-2.914731 -81.34211 195.78062
-4.4406481 -109.39494 63.293079
6.6626 73.637192 200
56.030853 -1.10225 101.66628
-6.273365 -73.751663 174.9261
-24.811777 13.469873 137.60411
-27.096586 -43.800182 0
-10 81.738098 176.49887
-62.663223 61.810444 15.467343
-6.791357 71.396309 60.608253
-79.011345 12.151425 5.1019411
5.1729612 53.150375 115.07394
-88.399826 -7.3187399 10.423557
33.016876 54.038616 69.769394
11.272544 -45.200638 113.70866
71.337044 -33.832478 4.0806732
-36.418751 79.755623 15.153595
9.974596 -87.504616 183.47481
86.009995 0.15070599 21.616079
-27.540712 71.499008 21.667101
-53.73074 -50.284805 0.87704301
-5.566391 54.208897 121.23308
2.812088 27.24157 10.000001
75.77066 15.393214 14.505989
65.350677 -28.849598 63.552162
68.866188 37.418427 11.629726
64.852829 60.065033 9.4306812
10.311226 -13.452604 141.69307
-65.146873 -30.788862 60.836666
52.737782 -3.0507071 112.88048
59.720284 -20.846516 86.65715
48.476841 -32.371967 0
50.98418 25.275244 96.689407
-29.798897 -25.327755 0
-6.7134352 77.350533 155.5759
-11.08025 -7.1750798 156.24449
5.07795 82.516304 169.76869
5.4640708 71.931877 36.945206
66.613525 -25.750313 41.897865
-28.933823 -64.068024 66.601852
75.030487 -15.573374 44.823944
-10 -17.297768 190.58925
60.754505 31.598217 70.414604
-27.8099 -66.066269 41.798546
18.226044 -70.424973 32.963615
-28.34873 -62.761623 51.433411
6.614511 -87.304291 190
-2.6539111 -55.341175 124.34401
21.908211 54.699604 90.83107
-27.549408 53.464687 95.270142
65.67659 -54.969208 19.341251
55.015026 54.197014 2.7655261
-62.097424 -36.844887 35.031422
-59.263622 11.330713 81.33625
45.660892 42.142326 77.230614
-32.702175 81.505493 8.8630419
-2.675436 -11.764282 190
-56.538212 56.896679 38.567692
-67.629929 -13.081068 47.70142
-2.3900001 21.292624 0
-2.26089 -90.812027 192.56192
37.595352 14.947179 129.13391
8.3362646 55.588104 125.02223
-28.862228 -74.13353 39.701332
56.747017 -7.0467448 94.338379
9.7398777 -82.694077 200
79.422455 7.966269 4.861165
-70.956688 40.936745 29.527302
43.106831 -46.079727 0
0.17056499 23.520599 200
-76.241592 -38.34211 20.696291
-76.530846 -24.159193 5.0493631
-2.530165 61.601475 112.30592
0.58860701 83.402267 172.20361
8.2947636 -50.844032 111.98803
-55.823013 16.245775 90.842339
-44.147758 48.521706 63.485348
12.067749 -12.824874 10
-81.482452 -31.020399 16.885254
23.400633 61.133064 0
53.102928 -46.817066 42.659302
3.842623 75.031868 200
40.829262 -69.213715 34.040268
0.289033 -1.554466 200
37.186905 -63.063984 31.121002
-10 84.583908 198.48
-1.222104 -16.753201 145.90648
75.831299 -39.302094 8.028286
55.180313 -53.735199 20.736729
-0.98226702 56.11591 101.43008
25.494446 -51.083416 95.885452
-46.912838 -27.921986 104.22443
-78.766678 40.717316 10.470364
-10 -75.791328 160.7616
8.8945827 -48.962196 10
64.103516 -4.6712532 67.768608
56.691147 -48.87056 26.428879
10 -60.734344 198.47121
76.580864 -38.716034 8.2017021
74.331017 -28.055277 39.592861
12.463714 -56.425255 91.421471
-58.471733 4.6771588 99.753922
-34.672245 12.647803 0
-9.2643862 -17.114115 113
-50.224331 -26.660534 96.146973
-4.4908929 43.739788 113
-56.06786 0.85757601 101.71127
59.119804 17.716417 76.9888
-23.342913 75.152893 39.931568
10 -78.843071 192.03842
-83.260139 -0.447611 29.50909
7.815505 -89.999992 194.03058
-56.490849 16.947838 98.404915
-8.6678867 -85.286079 49.09877
6.8586512 -78.757347 4.3552051
3.455292 56.793686 190
10 -84.24527 192.99414
-67.704559 -8.9513245 50.583885
-64.944153 -5.0407529 64.240326
-55.236629 -25.569666 10
-39.423676 -57.084038 45.797291
3.771327 -101.86894 49.899399
-4.3265371 -49.715942 190
43.721897 -47.406998 83.461845
-45.235531 -61.325314 46.335323
84.050049 -27.499331 9.7256985
37.916954 -21.351055 126.52235
-37.997055 51.968048 10
-4.7131562 -56.042908 126.27202
-17.446201 30.41855 113
-15.771297 54.749786 0
-46.281712 74.575317 11.647434
-38.811348 42.631573 10
-63.338654 -36.845795 55.269058
54.43187 69.738525 10.133051
-60.473938 -41.413528 30.354992
58.768906 -2.1147859 90.321007
-78.267548 -6.2844181 10
73.750618 6.7116289 10
10 -21.876083 190.35852
-41.709942 -27.024166 121.94781
-27.20673 0.78301501 138.53055
18.764168 -68.854805 38.610764
51.24947 46.84663 68.714493
-7.893703 -118.22231 84.670349
68.866745 -12.239715 43.573727
6.5593672 82.165466 29.154106
9.3600769 -62.680664 69.660522
10 -59.091286 106.83586
10 78.879173 169.71762
-5.2759171 -91.425087 194.24532
-5.7190161 27.375214 113
-75.335472 7.397099 48.699959
-8.0494804 -58.719261 104.38701
-73.745651 -23.144129 3.342452
-0.99235302 65.702538 200
64.009369 36.876915 53.549454
51.851601 10.812818 110.34161
-3.1002891 -68.715599 131.85199
-40.328125 -67.518913 4.333611
-63.377926 -22.414801 10
4.6242361 -88.571495 9.7093191
39.19244 -32.564819 0
42.924866 27.311796 120.77734
14.636862 -7.504302 146.14621
0.61289799 -85.167061 58.621254
-1.2781971 -87.395332 62.124142
51.380604 14.006675 109.70747
41.819588 -65.905907 40.620449
7.6505928 70.292931 165.42332
15.606421 -6.5471239 148.61722
79.367767 37.14653 14.908801
-54.546398 8.9861317 108.75407
2.2622819 -78.347725 187.55453
3.4556971 16.600075 141.39746
22.760868 -66.866501 64.577911
72.856926 -20.277308 22.002342
-39.627087 10.799367 128.2753
-6.9262099 -118.13892 109.52686
-32.045109 46.37236 105.43695
55.7244 -52.274315 22.150414
43.816925 -32.704884 110.69541
-13.855602 65.39743 74.083176
9.472373 35.671074 113
-41.859184 -51.671993 75.950951
3.560245 -64.902191 65.538925
67.430298 -43.995331 33.21442
2.8307021 -58.70623 104.3512
66.492256 -44.917011 34.015633
19.2721 -36.638428 0
3.465034 64.258949 10.000001
-43.857864 49.0056 79.260605
-10 -55.855892 116.22525
19.004587 61.286472 67.637321
76.655014 -40.865005 15.476162
-80.753334 36.17984 13.069496
69.099899 -11.288783 43.403881
-4.598917 -55.141922 109.56702
-62.519024 55.402081 6.7907691
54.550644 26.746826 10
-50.574982 57.850941 18.907604
-2.6884201 35.345322 10.000001
10 -71.955681 147.62994
61.036957 13.931208 86.829788
2.3041041 -61.027237 190
-34.473427 -45.014591 96.112
-37.879631 -18.708284 113
37.869015 -42.117588 106.34051
-41.172638 -54.915443 49.069241
8.6851549 52.402206 103.1958
-10 54.967438 114.32715
8.3967609 -66.101456 57.197071
-36.342674 -7.6958628 131.05154
-75.859673 2.6606779 10
51.748192 -70.835754 9.6369429
10.000001 86.745842 197.48419
-61.746243 26.862942 75.816544
-14.074837 53.357113 102.0265
-11.355207 -47.809616 0
-10 -41.615326 197.18658
-44.753082 -28.401381 110.24314
25.54355 54.911869 0
10 21.297661 198.43497
-37.695824 50.875465 69.889809
69.624886 34.55685 15.403563
83.471115 5.5437479 25.916782
41.951584 30.016245 115.87917
-85.408287 15.936671 14.170413
-15.136239 -58.478924 93.630249
-0.27767399 -84.749229 190
17.053461 -2.6322811 144.20193
37.902969 -64.82637 10
17.717659 3.9025309 0
54.374176 4.8339419 105.19553
77.474739 -33.193653 26.184429
-41.575333 -60.119072 31.162312
-6.5080981 9.0084648 9.999999
-29.082212 44.689903 10
18.908077 45.122608 123.16044
-32.515575 70.228989 17.889835
-4.9423442 69.170479 68.216202
-4.384726 -115.01403 72.995605
25.148043 84.224449 12.268428
9.3267202 69.796219 134.82097
44.464516 -66.662666 5.2577262
24.79151 46.995003 110.79976
-14.349534 -25.387716 136.90215
10 76.789955 175.54047
-6.1585469 53.741856 106.6191
5.2805591 -82.628166 51.311543
18.942146 -60.736824 84.786423
16.494373 -66.534218 49.310001
73.053207 -31.501602 10.865708
-10 -67.18457 138.4166
9.999999 61.685406 140.0479
-5.7819839 -1.828873 113
10 -68.849121 145.87323
-23.029882 -66.067184 46.095131
-40.110268 -41.612095 0
17.758173 -6.8616791 0
28.20406 -53.682159 93.641563
-5.7527919 -99.315201 79.269997
9.180337 16.673931 190
4.2203622 -78.729691 200
0.34167099 -8.0217133 200
-73.448311 7.5560789 10
10 -71.040421 152.20294
-2.8728459 -120.57932 81.824814
-72.945549 -4.5692592 33.719734
67.436295 3.454407 0
29.644176 -63.010818 0
-10.362843 6.470767 132.67038
-61.360699 26.140497 60.845215
46.027382 -63.776432 4.3654208
-9.6629848 79.249321 160.79337
-6.7920532 89.452087 188.8255
-9.9629431 48.02977 190
10.865307 32.175297 0
3.260972 -52.908157 199.99998
43.329506 36.385887 105.79115
-7.1954851 -87.767105 184.196
1.689262 -81.826065 32.991215
8.7309551 -85.080276 19.336929
-16.317747 69.010612 39.887589
-16.881531 2.254137 148.04164
-64.433533 24.400921 51.347855
5.2017059 76.410507 19.860678
0.61898398 82.718018 170.32364
-0.210151 -16.268984 151.01134
-1.083141 54.794182 102.32526
-10 -64.164886 131.33655
-49.049076 13.539503 119.06501
10 62.788727 199.31157
25.478653 40.026337 115.18431
-2.2746191 70.303947 200.00002
12.801851 -52.770142 10
1.794279 -89.518478 199.99998
71.30365 -9.8441 36.007298
29.797726 -24.206207 0
-2.9199641 -85.619064 178.29425
5.998415 -60.331734 81.307434
-4.4906969 23.106377 10
56.360134 8.7118568 103.59381
24.205982 62.561329 76.363235
-10 -70.292397 159.21126
-7.6629982 -17.728346 113
-7.912694 -33.789474 132.83755
-1.01827 -90 193.65341
-1.458196 10.499611 190
-26.612532 -15.181435 135.82802
36.276833 24.780933 126.12929
-4.4754872 -120.8815 118.41072
-3.9498811 35.406387 200
1.774462 1.888168 190
70.590607 -2.4651079 44.424435
52.866039 0.48411301 114.35589
-3.5154009 -66.838158 58.101234
-2.8441811 -9.9435368 150.52225
-37.396103 52.863087 80.404861
87.761353 2.5057089 15.104683
38.683727 3.9622631 0
-8.9930639 -39.388855 200
-7.8131452 55.89386 190
51.812782 -43.871204 72.257629
-15.062553 5.9296031 151.02388
-62.31918 34.605194 39.202454
5.5426359 -8.6993027 200
83.018204 -25.001619 15.892193
-39.783501 -14.736743 0
65.692863 -16.004564 52.93338
42.594757 -30.145836 10
-38.921509 -54.682129 0
-41.05064 -64.508957 17.945587
77.404686 -9.2110519 41.571838
46.353428 -51.421913 0
-74.189514 -40.516029 7.6258931
86.385666 15.777371 11.396373
-73.826599 -28.590536 11.877438
8.9962111 -103.23875 77.743225
2.78264 90 199.3493
-4.8605409 67.594315 128.77097
30.633638 -60.135735 10
38.72039 -35.375088 118.93243
25.628057 -70.67865 1.872209
18.147467 -63.120682 78.257462
-9.2427864 71.265015 36.618027
-40.050228 34.845627 111.54193
-26.070589 45.946121 116.42419
-53.459396 -2.472657 115.74305
35.04285 -27.60779 113
4.0468578 38.648586 113
-47.476208 57.584824 26.553288
49.592846 -25.542034 0
37.874855 38.097576 116.3276
-48.159447 63.8685 35.152649
-20.243288 11.747192 141.05423
-28.101566 44.484451 111.7776
2.607672 -87.238464 182.74358
-40.271523 59.240021 36.889221
2.2664349 10.294954 113
10.000001 -74.875244 197.0321
-73.037422 -9.9251852 29.253273
-10 -72.34404 193.23441
-59.095383 50.881428 14.165731
61.7201 -62.542377 15.917975
-10 -39.050388 192.33559
-53.716393 -51.606945 30.179853
-66.173264 -3.5968111 0
51.163559 28.353977 10
38.101379 79.980431 9.6496048
58.364655 -13.850969 82.871056
24.678699 -0.019795001 0
-7.70929 -119.45502 110.24026
-60.644745 -41.334343 54.509972
79.867363 -26.877161 7.264874
-76.451981 3.3684931 21.108007
42.955231 -65.944199 38.638256
-3.7160399 -11.63208 190
-20.585333 -51.15332 0
-15.653688 -4.013299 151.12813
-10 -76.548134 159.91998
4.4997368 -112.88165 69.364021
-6.9161382 -38.983448 129.2829
-33.983528 80.490547 8.5638199
-70.850876 -19.473753 30.3619
-54.920418 53.269081 48.914177
-66.235085 31.329468 57.232288
49.504486 23.02371 106.4536
-60.100636 28.47777 59.85817
-0.39453 -45.445526 190
36.027168 80.360519 14.300035
10 42.565495 199.83153
3.086791 -72.411926 142.00763
6.2092972 83.95787 173.73012
-66.391693 -5.6597142 58.178116
35.941734 59.663765 65.909805
-44.951641 22.7822 0
-19.182943 21.536116 9.999999
72.850616 -24.34403 10
62.900455 38.029541 10
43.351856 -55.184952 43.422981
-56.371323 27.856955 10
32.337997 -60.924553 0
-15.755938 -52.095078 105.6069
32.853722 -62.143913 64.873337
10 -45.555225 198.60695
-14.528332 -68.794022 42.097366
-0.72632903 -88.187332 185.35056
38.383633 -17.27331 113
-0.86769599 -90.860962 192.69637
35.218029 -57.585117 53.352768
-7.7190042 -4.4047518 0
-47.647877 36.718853 82.586494
7.5203638 -4.0717101 160.18118
13.362323 9.0493107 10
54.253899 39.42942 55.045155
-5.708353 -67.680389 72.140182
-61.100174 25.592831 62.895039
-19.947399 72.651505 23.048452
-2.1856019 -16.103523 200
-2.6421821 -61.871346 90.969078
-14.092082 35.732796 10
-7.7278299 11.764362 147.78885
-26.239357 21.164207 0
43.669807 -34.905781 107.40424
39.38105 -35.231693 112.88747
52.095959 -21.792624 100.6657
10.639654 -56.935486 100.7813
7.144722 82.456726 198.67426
-57.452919 41.370186 0
71.513893 -8.1083632 0.35813901
-74.129723 -40.82888 21.815968
-51.710278 -27.166744 0
18.835796 85.478783 9.5573883
7.5084052 -99.252144 75.649475
43.05542 -37.93372 94.957207
4.4170961 86.124893 179.6832
-57.319221 -43.97662 58.38932
36.024635 -63.802853 31.244511
-66.705482 -21.752071 44.612511
9.0017214 4.0419121 190
7.5638442 15.399685 146.64807
5.7879381 -88.629837 196.42859
17.308704 63.692814 59.651665
0.327196 71.167877 167.82787
12.446032 -20.424244 10
2.8962951 -101.08957 84.976311
-35.3643 57.412003 53.599388
-60.086327 -5.2674508 10
-10 -56.94849 120.72812
-10 81.711006 179.41943
36.762604 -51.749985 69.068642
-40.779366 -50.540009 80.560127
6.6434979 -39.208633 190
89.725456 -0.89326102 10.28414
-66.348785 33.67738 10
-24.670868 39.123779 113.228
84.290092 -23.729015 12.90382
-30.965086 74.770882 36.604797
-47.964134 28.924461 98.592728
-67.998444 -5.5347209 71.308548
-69.984184 -34.223145 43.101044
-15.88663 47.082703 118.18845
-10 -68.543564 190.57269
72.059624 24.263723 10
-10 69.259377 136.4782
-4.2147989 -65.355713 151.85895
2.7345901 44.181545 190
10 82.960175 185.8405
9.8887548 49.889248 118.62503
-0.017568 50.589916 103.85538
44.588898 23.527729 0
-22.321262 -41.945335 0
9.2728939 64.452637 200
-67.777817 -14.691626 45.894146
-7.0685759 -57.529541 0
-39.888947 43.895901 87.932388
-10 -66.497711 146.95276
-1.85527 57.910294 190
6.8208842 54.779972 102.10388
-7.1310539 59.451439 95.448341
6.758142 71.780396 190
-53.494629 37.313873 78.970993
-8.9809389 41.492126 127.20564
-47.302387 0.19262099 124.31527
5.697351 -32.863251 190
7.937582 6.892159 190
72.650566 -38.901264 28.697195
-10 -62.49778 133.43225
-14.478771 54.625114 96.822372
8.1040897 -9.5804443 190
40.215054 0.147117 0
81.402328 24.844715 20.723633
-70.323685 17.166931 34.167694
-85.776726 12.745608 14.95155
24.87089 30.559349 113
10.000001 84.587265 178.91437
-3.17608 -63.87109 84.791641
-58.919823 32.669266 54.557861
-66.846466 14.617167 10
-24.237991 -64.908081 69.460762
41.696281 -47.483002 72.243774
-4.7348251 43.834057 200
-58.800697 9.2342243 84.732521
7.1610451 -75.571457 48.145458
49.533897 43.290897 10.000001
69.661362 7.5371971 65.262245
-43.445511 -57.060989 59.913971
10 36.040207 199.98419
-34.13813 -60.265453 67.410423
-7.9183621 88.255943 185.53908
78.48278 -38.846363 14.285132
-45.660889 -48.780396 76.824707
-49.086708 47.21954 54.920696
-7.6100469 57.477356 100.9595
39.518871 72.90419 27.040287
-69.213531 -15.656166 39.612301
-1.5955909 -62.181381 143.13748
10 70.367477 144.67332
30.820744 -22.465588 130.35368
-61.485531 43.921463 21.56179
55.355618 28.277489 75.822014
66.896278 -22.645145 64.55809
-8.5460129 6.4419909 150.24846
-55.302551 -0.026215 111.7639
-9.6936512 56.754749 128.22754
35.797062 -52.338776 69.253098
-10 -22.884209 192.64337
2.2300079 57.766663 200
32.288445 28.294853 127.11884
-63.17411 20.061945 76.983688
68.955818 1.115546 71.078712
-44.199364 -29.16724 10
65.374893 -6.7777548 10
-23.101801 67.98864 38.62376
38.190971 72.527557 30.183334
-37.914959 56.827179 69.685013
-70.420181 -34.716721 3.9227381
-64.213303 9.8701906 63.353516
36.71402 -64.12291 53.537773
58.542252 63.124756 19.750063
-58.920689 -1.9687541 0
4.4769421 16.054859 140.29272
-25.279804 -1.4930429 10
6.4725652 -58.232014 132.2863
-3.7953069 -54.885368 110.78846
53.556889 -3.294421 109.53191
28.09651 73.006165 15.423329
-3.109669 -71.4049 139.24084
1.8273571 -105.1223 92.533966
-30.245607 72.728577 14.673927
71.377213 -26.744081 22.748795
-0.19259299 -59.197479 90.142578
-42.001862 -62.541344 22.304014
-4.9534478 -67.175224 74.062485
66.138405 33.799202 1.551512
85.353439 14.809146 14.989178
62.707661 -37.694115 55.428604
-35.569839 61.817589 10
-49.187553 -27.679359 97.311905
-6.1745019 -71.393723 38.476894
83.159836 10.181474 7.248601
-52.097561 -20.488426 10
28.481483 -21.945564 0
8.5035725 53.958542 200
-6.1365528 77.418373 190
37.436657 -79.764488 13.440214
7.61869 75.536667 179.83034
53.779694 9.4190254 110.7505
-52.823311 6.5673971 109.85049
-47.493187 27.163116 110.76166
41.896225 39.743729 94.792923
-8.8912878 -117.1078 85.997498
42.908848 -23.465622 117.26974
-10 64.449341 142.10046
3.758914 -8.4317055 113
9.6296616 17.21273 0
-31.445307 41.792007 113.27695
-64.586884 19.935272 72.91346
5.3006511 -10.338913 200
-19.33075 -70.734985 30.918987
9.0200176 3.30633 113
-12.367874 82.295837 25.382572
19.304459 -68.443924 61.967552
-9.4119663 -114.49886 85.364983
-12.198836 72.023415 55.613621
-31.476484 -0.11687 112.99999
-9.5491266 35.704086 190
65.47406 -30.908125 59.82486
2.9216361 -11.489035 149.41159
58.047707 34.658768 53.061867
1.068295 -22.513538 190
-8.8274202 -64.511658 63.002525
59.586418 -44.299507 52.214832
-6.6787581 -71.123978 0
56.433868 1.53483 99.778656
-8.3575907 -108.19168 68.224442
42.579716 -28.744423 120
2.5183611 -4.8962069 128.47006
3.058033 -136.92957 110.24379
10 -67.825287 142.09196
32.524475 -41.055363 113.32788
16.800758 -70.824135 0.95199901
12.251908 -12.260234 0
-21.300545 65.409294 49.961967
64.953979 -46.648888 34.963287
-23.519419 0.083664 141.25319
36.814388 52.989792 64.898582
43.308239 -56.752838 0.082809001
-77.415024 -37.625633 18.968756
-32.023964 -31.225672 10
74.013809 43.568199 17.552557
-9.166995 -59.949947 190
11.025055 19.090155 113
-38.739807 41.816662 10
41.682644 64.775581 15.691399
3.312382 -63.496292 199.99998
64.095955 -47.444649 35.774734
-52.095013 25.112324 93.410866
-60.890427 18.270037 84.728012
-7.843399 -71.909859 140.62819
44.338161 -51.078049 54.704582
-34.599514 11.406974 131.76663
3.803319 68.355736 130.86325
-30.124327 72.852379 10
42.154346 35.038418 110.95244
3.1424379 11.893616 190
-1.894675 -87.198677 200
18.393124 37.540863 127.94141
-43.964432 -56.332359 60.863655
12.11123 -37.490959 0
12.438571 52.501968 10
12.020158 61.239353 73.181313
-61.493431 38.003269 34.475052
-63.710232 -31.179241 63.760612
-48.516197 -32.321465 10
-14.477024 -79.733353 31.668541
9.5306377 78.917511 36.947792
34.260391 39.598465 114.29964
-7.5866909 61.781342 74.49308
-9.999999 67.622482 131.34775
-46.239117 -70.798737 21.109655
-10 88.475769 194.61646
68.533813 -42.610626 32.771084
-5.5275302 -33.699196 0
-22.827316 19.245476 0
1.0548249 -83.784439 173.25287
-10 -21.30735 198.19737
23.056496 -55.875847 10.000001
-43.032185 61.946331 48.452103
-10.025007 62.268135 85.497482
-46.891003 4.646049 114.30427
-7.7201219 -16.180779 145.1279
-4.887826 -24.28928 10
-3.290714 67.664192 55.085514
77.226624 40.796646 14.168283
9.8676033 -57.8661 131.28096
58.526413 43.446487 56.268204
-62.626541 26.286785 56.383499
-23.967129 -18.826998 113
21.735666 -47.653889 119.38033
48.273472 -43.476105 81.715561
-61.908112 -6.2114282 75.059647
-8.6991787 66.156723 154.05922
71.062057 37.979164 34.179611
45.274021 -46.952286 0
75.629326 -38.919342 21.259712
5.409678 -12.774986 9.999999
-51.594715 -21.511232 10
62.919701 -46.79438 39.780281
71.824722 2.050035 62.118008
-7.702765 68.930206 132.44128
60.450027 -55.323547 5.763061
25.597664 -19.103966 10
40.728485 -64.468674 46.007481
3.126894 47.482635 189.99998
-7.6713181 -46.894043 10
21.05229 32.813183 0
40.628242 43.471626 87.704277
15.42616 8.5531864 145.24734
-10.333895 -71.149445 59.265427
10 -55.755791 116.16402
-10 84.331268 197.36127
-10 17.377792 193.0656
-35.544258 -57.147808 10
-16.047867 28.810156 0
8.0108223 45.803604 10
34.02523 -64.228737 0.69957298
-48.323471 10.666497 118.51231
82.717728 -28.055197 9.0275564
-8.1109447 71.779076 35.502892
50.165447 -27.395197 94.733383
-3.0022831 63.088989 116.39288
-6.1419148 -72.484619 57.794811
64.173775 -23.056011 72.304398
10 -20.967346 194.36758
5.0143991 74.056366 146.52573
74.852829 -33.787022 5.7691212
5.9560561 60.256386 93.772743
31.95797 -57.829208 59.68161
-24.546762 -72.950958 10
9.4300232 27.739601 200
0.50876498 39.297028 190
-6.331656 -134.6199 113.93555
44.558765 14.150475 0
86.19632 -15.402461 9.5771656
-19.477802 -45.983818 117.82645
-78.375031 -17.970608 33.614567
10.058067 -23.905857 139.52571
-66.630859 37.070072 10
-65.249207 39.790543 18.278435
11.924545 53.415245 103.45301
-10 82.886734 193.79523
22.911743 -61.668961 63.161377
41.452259 60.542423 30.046165
0.730712 77.259552 46.945618
74.450165 -21.30983 10
-53.039093 -3.9478409 116.11521
42.933113 43.922363 93.437958
24.740276 71.891136 48.684063
-1.529995 -26.851776 200
-10 -10.387527 191.19107
1.616493 68.147659 54.504848
41.933865 -17.854843 125.50843
-54.315102 -8.6066303 102.5271
3.581857 18.912249 10
-10 41.559925 199.39713
13.779305 71.383774 32.676891
-10 -62.957542 136.88254
74.596695 43.156845 16.786566
55.872536 48.67971 54.172226
0.58123398 -23.554985 190
72.762985 -36.627605 5.6761951
36.987568 -31.536976 0
-50.892525 -28.739655 99.688766
-9.8619432 -74.762161 200
-26.081757 -51.261604 9.999999
-18.623888 73.976822 18.94931
-7.584003 60.647415 138.9229
-15.703022 -52.011959 105.96834
8.82623 -76.638069 32.93803
10 -73.137642 159.85614
-7.135035 -72.55294 142.39464
60.562206 18.140041 71.096428
-54.147408 -35.039139 64.99221
-57.167191 18.869976 83.639595
-43.381989 -72.150139 22.496468
-10 -71.04744 160.9364
-23.527781 22.989851 0
-83.634705 -2.1926169 27.392204
-26.898632 61.409142 59.029205
-1.721252 60.550903 190
-0.371052 -122.01104 82.964569
18.04748 -74.11245 18.868336
-49.515984 -39.07283 85.942238
7.243032 -46.331757 0
3.7680509 -73.61618 174.5546
-78.821693 5.4692011 39.598576
65.658775 -39.120556 18.403099
20.157825 -1.758615 0
-8.5487833 83.054123 25.386591
-9.5594273 -48.078323 190
20.595177 73.435593 19.52486
-30.340487 -1.3234299 0
-42.245728 30.983261 112.80251
38.189423 -59.549652 62.458824
-16.014412 60.678284 86.666397
28.102549 39.114845 10
-15.935172 -42.64814 125.39882
-43.840782 -33.750214 0
-1.589564 59.693417 97.971855
-1.7554229 90.882729 192.75519
81.985962 16.116356 24.104406
32.963963 -68.338043 49.28685
-3.2039509 -6.755959 200
-74.89621 -18.624199 3.4861579
-58.285896 30.872829 77.758743
11.91409 -87.466362 10.480448
-54.014069 -4.7965951 106.61407
81.070053 31.527327 17.799179
-7.5551238 37.177635 190
-32.931305 -77.729355 25.987165
-31.861387 -28.433073 10
-0.63948101 74.376831 190
56.506226 -35.410862 56.46125
54.752705 11.95728 10
66.777084 14.242475 69.81044
-2.7704589 77.077133 10
-13.402408 49.772026 0
71.310158 -36.282516 36.381802
40.950779 32.046322 114.71548
-23.75832 28.28574 131.3618
15.376703 30.013519 10
-14.59313 2.0267701 112.99999
10 -83.759354 186.44434
-10.821445 66.455711 72.749229
26.893787 23.202896 132.42531
-5.2217932 49.083282 107.15041
11.660521 -48.342125 0
71.222672 -49.538883 14.57255
-10 35.772179 190.52689
-16.806976 -78.169022 5.149785
53.856331 -32.069359 86.785828
45.613823 -34.177841 94.797516
-51.99366 36.391891 84.235497
-44.157104 10.311795 0
39.766342 -64.336426 2.610075
-51.31768 -33.312496 91.033264
50.587334 40.243122 81.333496
44.891083 41.660553 80.802773
4.6819172 74.578857 52.503586
-3.324383 62.393501 114.48202
5.184031 -10.049524 0
-10 50.890495 104.85542
-16.572763 -64.406403 57.462444
10 -29.383955 190.51959
59.655239 51.468258 11.050852
